       42.24510       -25.61130       -64.08320
       42.27750       -25.59510       -65.02300
       42.17170       -25.63650       -66.08530
       42.22320       -25.59300       -67.00360
       42.18700       -25.64430       -67.94300
       42.20940       -25.41950       -68.85300
       41.95980       -25.20630       -69.90710
       41.66100       -24.66430       -60.05630
       41.96660       -24.61880       -61.07640
       42.23190       -24.12180       -62.18340
       42.26030       -24.61000       -63.05090
       42.32060       -24.60990       -63.92720
       42.23470       -24.60100       -65.01280
       42.20920       -24.58040       -66.07090
       42.22890       -24.63640       -66.99060
       42.32500       -24.60680       -68.03430
       42.14190       -24.63060       -68.98480
       41.94000       -24.68330       -70.06330
       41.68020       -23.63190       -59.97760
       42.08390       -23.62440       -61.10500
       42.19500       -23.64270       -62.06450
       42.28320       -23.63160       -63.06690
       42.38340       -23.61990       -64.05690
       42.38400       -23.62750       -65.07130
       42.30170       -23.60610       -66.05640
       42.30140       -23.64620       -67.07290
       42.32420       -23.60850       -68.01960
       42.09950       -23.63060       -68.89630
       41.87820       -23.75210       -69.96160
       41.89680       -22.56510       -60.34000
       42.11560       -22.60610       -61.05240
       42.12090       -22.63560       -62.00740
       42.22550       -22.65800       -63.03080
       42.33300       -22.55180       -64.03680
       42.50250       -22.51370       -65.05600
       42.43120       -22.58140       -66.04050
       42.44980       -22.63970       -66.95880
       42.36640       -22.60300       -68.00400
       42.22160       -22.56150       -68.87710
       42.09850       -22.43380       -69.93420
       41.89630       -22.16190       -70.89810
       41.64960       -21.66500       -59.35090
       41.91010       -21.64940       -60.12530
       42.08850       -21.61690       -61.00550
       42.14740       -21.57960       -62.00300
       42.20740       -21.62890       -63.06360
       42.33770       -21.61620       -63.97440
       42.45850       -21.52740       -65.06430
       42.36730       -21.69580       -66.14460
       42.34400       -21.64580       -67.04490
       42.36570       -21.60850       -67.98950
       42.22350       -21.61950       -68.93580
       42.14160       -21.59890       -70.00450
       41.99780       -21.61400       -70.76600
       41.64760       -21.10920       -59.54970
       41.69760       -20.67040       -60.10340
       42.04530       -20.55620       -61.10140
       42.18630       -20.60950       -62.02010
       42.25500       -20.64830       -63.04810
       42.35390       -20.70910       -64.04020
       42.33030       -20.55590       -65.03740
       42.25870       -20.62570       -66.01890
       42.25200       -20.62560       -67.03300
       42.28630       -20.62460       -68.07910
       42.20880       -20.56110       -69.00630
       42.09810       -20.80470       -69.90560
       41.87960       -20.72710       -70.62930
       41.65600       -19.91190       -60.41390
       41.87080       -19.71340       -61.03770
       42.14150       -19.65390       -62.02570
       42.21770       -19.60550       -63.02320
       42.24660       -19.62160       -63.99780
       42.30800       -19.60060       -65.04220
       42.26470       -19.67660       -66.00660
       42.20900       -19.64210       -67.02060
       42.37730       -19.66060       -68.06300
       42.05120       -19.65730       -68.83530
       41.86680       -19.97190       -69.58410
       41.79160       -18.65060       -61.18640
       41.89580       -18.66650       -62.13830
       42.00070       -18.70490       -63.07360
       42.25150       -18.68460       -64.10300
       42.25100       -18.62960       -65.01720
       42.25310       -18.59740       -65.99290
       42.25190       -18.64390       -67.00610
       42.11320       -18.67520       -68.05390
       41.85110       -18.53180       -68.89470
       41.70710       -17.91950       -61.17720
       41.74000       -17.88070       -61.97020
       41.75250       -17.64130       -63.16490
       41.85630       -17.64500       -63.99900
       42.18260       -17.71620       -65.09060
       42.05990       -17.73980       -66.09970
       41.99480       -17.59470       -67.18390
       42.00910       -17.57000       -68.03980
       41.90550       -17.68650       -69.05870
       41.79080       -16.92910       -62.84610
       41.73310       -16.71820       -63.99100
       41.96910       -16.68500       -64.86400
       41.78620       -16.89550       -65.76070
       41.85310       -17.02910       -67.37280
       41.83960       -17.03540       -68.59540
       41.76210       -16.10520       -64.19410
       41.86020       -15.96470       -64.71520
       40.72010       -30.48710       -63.14890
       40.91350       -30.55930       -64.07920
       40.99850       -30.50590       -65.17980
       40.91010       -30.48210       -66.06520
       40.95960       -30.41080       -67.19310
       40.84420       -30.22950       -67.80790
       41.18540       -29.49420       -63.12770
       41.24400       -29.59830       -64.06070
       41.12860       -29.63180       -65.02800
       41.11140       -29.50790       -66.15780
       41.17170       -29.61990       -67.17780
       41.14510       -29.60020       -68.02210
       41.00240       -29.44660       -68.86740
       40.86360       -29.28030       -69.92560
       40.77790       -28.82730       -60.22020
       41.36530       -28.75040       -63.04840
       41.38310       -28.65570       -64.13790
       41.31260       -28.61790       -65.01260
       41.25630       -28.64270       -66.03430
       41.32910       -28.63640       -67.06370
       41.34750       -28.67000       -68.11390
       41.29070       -28.62500       -69.06480
       41.08300       -28.66600       -69.98470
       40.93040       -28.47210       -70.91630
       40.70090       -27.50010       -59.27910
       41.29160       -27.81610       -60.90190
       41.53480       -27.56140       -62.14960
       41.65370       -27.68990       -63.00770
       41.71690       -27.74830       -64.11990
       41.60150       -27.72150       -64.99610
       41.52460       -27.67840       -65.90320
       41.55820       -27.77990       -67.14470
       41.62280       -27.63420       -68.19640
       41.33360       -27.60310       -69.04780
       41.20960       -27.55070       -70.12840
       41.07690       -27.56470       -71.12690
       41.01040       -27.42620       -72.00600
       40.61160       -26.29440       -57.55780
       40.74790       -26.12370       -57.93770
       41.54030       -26.43100       -60.43690
       41.59550       -26.80080       -61.17400
       41.63660       -26.80840       -61.87800
       41.69300       -26.76360       -62.80630
       41.76540       -27.11800       -65.89100
       41.74360       -26.92540       -68.08030
       41.44980       -26.79580       -69.03280
       41.37170       -26.60560       -70.02170
       41.29410       -26.53070       -70.99230
       41.14540       -26.55690       -72.22240
       40.58770       -25.37280       -57.27560
       41.01040       -25.63200       -58.10420
       41.23300       -25.57580       -59.02010
       41.54410       -25.62480       -60.06130
       41.71960       -25.84010       -69.19250
       41.58380       -25.67610       -70.08790
       41.44760       -25.69130       -71.08460
       41.26750       -25.61960       -72.12710
       40.93030       -25.16870       -72.58900
       40.67560       -24.33150       -57.14600
       41.11040       -24.60500       -58.11000
       41.26830       -24.65710       -59.09010
       41.54370       -24.65950       -60.02640
       41.80930       -24.53630       -70.15610
       41.61670       -24.64940       -71.06170
       41.26230       -24.62030       -72.10680
       40.94460       -24.51520       -72.92710
       40.59680       -23.25180       -56.57290
       40.84000       -23.57000       -57.17600
       41.06990       -23.62120       -58.02930
       41.27140       -23.68310       -59.05450
       41.52170       -23.64020       -59.92000
       41.84440       -23.31750       -69.55270
       41.74650       -23.58780       -70.04750
       41.60400       -23.63150       -71.14710
       41.42580       -23.59980       -72.04830
       41.19920       -23.50450       -73.07220
       40.57080       -22.99870       -56.56900
       40.86440       -22.69050       -57.15280
       41.19420       -22.62720       -58.14510
       41.33750       -22.67240       -58.85770
       41.62620       -22.84940       -59.88950
       41.84090       -22.88600       -69.44730
       41.71870       -22.72990       -70.03290
       41.56910       -22.68470       -70.91410
       41.46340       -22.59560       -72.02740
       41.27900       -22.80900       -72.88540
       40.71710       -21.61020       -57.17490
       41.17450       -21.62170       -58.03920
       41.51190       -21.49580       -59.07320
       41.62120       -21.19120       -59.68990
       41.75870       -21.71400       -70.19820
       41.70330       -21.72400       -71.00480
       41.39040       -21.67710       -72.09810
       41.20550       -21.79080       -72.79870
       40.76110       -20.59020       -57.33600
       41.15110       -20.58310       -58.07350
       41.32190       -20.51570       -59.05020
       41.57690       -20.65390       -60.06820
       41.76310       -20.44530       -70.17500
       41.65740       -20.53890       -71.17080
       41.32170       -20.57980       -72.02410
       40.98510       -20.70560       -72.84250
       40.69240       -19.60060       -57.18100
       41.04690       -19.58780       -58.05760
       41.19810       -19.62750       -59.06740
       41.40090       -19.57690       -59.94560
       41.65090       -19.49020       -60.74030
       41.80440       -19.56940       -69.18540
       41.58740       -19.50870       -70.11010
       41.45370       -19.63050       -71.07410
       41.32490       -19.61800       -72.05650
       41.08190       -19.42510       -73.03200
       40.67980       -18.63430       -57.44230
       40.92280       -18.63260       -58.06770
       41.09410       -18.64020       -59.05170
       41.31530       -18.66320       -59.99450
       41.60750       -18.54780       -60.85800
       41.81070       -18.11950       -68.54920
       41.63000       -18.60930       -69.17340
       41.44320       -18.57960       -70.05630
       41.35790       -18.61120       -71.05660
       41.19770       -18.69920       -72.03930
       40.95080       -18.46260       -72.85760
       40.81170       -17.71990       -58.26090
       41.05240       -17.60580       -59.06210
       41.26340       -17.54160       -59.99210
       41.50430       -17.52750       -60.96330
       41.62550       -17.63290       -62.05070
       41.63300       -17.59500       -63.04690
       41.71100       -17.49580       -64.07960
       41.76570       -17.21480       -66.15260
       41.76640       -17.53780       -67.11260
       41.68390       -17.44830       -68.04480
       41.58530       -17.62550       -69.15840
       41.35470       -17.60330       -70.04050
       41.26840       -17.63650       -71.03980
       40.99980       -17.67660       -71.87800
       40.63940       -16.73600       -58.41470
       40.77520       -16.79270       -59.00590
       41.01300       -16.71300       -60.21840
       41.15070       -16.62740       -61.06750
       41.42450       -16.52010       -61.99510
       41.50920       -16.57950       -62.98190
       41.61590       -16.58390       -64.09230
       41.71980       -16.54750       -65.05400
       41.51410       -16.53930       -66.20810
       41.43130       -16.57510       -67.08910
       41.43070       -16.54790       -68.03670
       41.44910       -16.59810       -69.05050
       41.17980       -16.64320       -70.02660
       41.13140       -16.84920       -71.23410
       40.97030       -17.06220       -71.98260
       40.66690       -15.97590       -60.04050
       40.86830       -15.74180       -61.14510
       41.18570       -15.61680       -62.11340
       41.33130       -15.62520       -63.11890
       41.36330       -15.52240       -64.03180
       41.45580       -15.58970       -65.08160
       41.29650       -15.66700       -66.08900
       41.25900       -15.61500       -67.07960
       41.26390       -15.63190       -68.02660
       41.37150       -15.66970       -68.94570
       40.98390       -15.87000       -69.84060
       40.71090       -14.95750       -61.47390
       40.90620       -14.70830       -62.18010
       41.12610       -14.69990       -62.97050
       41.11290       -14.81610       -64.08240
       41.19620       -14.64140       -65.07610
       41.16140       -14.65460       -66.07870
       41.16150       -14.55270       -67.06710
       41.09690       -14.71560       -68.01660
       40.90030       -14.80420       -68.94160
       40.73130       -14.09610       -62.42720
       40.72500       -14.03970       -62.97250
       40.75790       -14.01780       -63.89230
       40.77710       -13.77370       -65.15610
       40.94680       -13.78130       -65.95870
       40.96330       -13.94640       -67.25080
       40.96530       -14.06300       -68.00970
       39.91480       -32.40200       -63.05240
       39.78740       -32.45850       -64.04290
       39.82360       -32.28050       -65.08640
       39.80460       -32.43500       -66.22340
       39.98120       -32.46270       -66.91750
       39.99280       -32.25350       -68.08450
       40.22750       -31.62490       -63.10500
       40.26830       -31.60340       -64.10570
       40.23840       -31.56880       -65.06930
       40.28200       -31.61410       -66.09290
       40.31530       -31.61380       -67.12550
       40.14300       -31.65620       -68.07260
       39.97950       -31.39310       -69.06040
       39.88510       -31.29120       -69.81380
       40.52630       -30.71000       -63.02050
       40.72830       -30.82320       -64.00320
       40.55830       -30.98570       -65.19490
       40.65420       -30.96290       -66.07670
       40.64870       -30.81200       -67.20500
       40.47540       -30.63760       -68.16100
       40.29450       -30.66270       -69.04270
       40.17730       -30.60930       -69.96220
       40.15760       -30.44980       -71.08770
       39.92170       -30.32840       -71.81450
       40.80250       -29.94880       -68.24780
       40.58820       -29.81160       -69.09760
       40.52610       -29.71130       -70.09290
       40.44960       -29.58860       -71.06580
       40.11850       -29.59790       -71.84970
       40.05360       -28.82150       -57.93050
       40.31520       -28.81560       -58.99720
       40.54230       -28.81240       -59.68990
       40.86760       -28.86980       -70.43740
       40.64730       -28.75320       -71.26140
       40.40820       -28.53220       -72.10360
       39.99670       -28.58210       -73.02830
       39.97970       -27.23620       -56.60630
       40.88640       -27.68330       -71.41980
       40.57470       -27.70400       -72.17920
       40.28970       -27.56600       -73.12340
       40.12160       -27.38750       -74.00920
       39.90710       -26.62320       -56.10590
       40.23410       -26.68600       -56.99320
       40.56720       -26.21960       -57.59590
       40.86340       -26.71630       -72.26660
       40.52720       -26.61670       -73.14920
       40.28150       -26.61690       -73.98950
       40.04330       -26.56580       -74.84200
       39.61670       -25.40170       -55.40660
       39.95050       -25.40720       -56.20250
       40.26500       -25.65860       -56.93940
       40.90920       -25.72320       -72.30340
       40.57000       -25.64810       -73.12720
       40.32080       -25.62720       -74.04580
       40.24390       -25.52020       -74.93490
       39.63160       -24.35530       -54.98970
       40.02170       -24.60610       -56.02550
       40.47450       -24.49570       -56.94010
       40.90100       -25.09240       -72.51310
       40.58760       -24.65840       -73.21190
       40.38860       -24.55670       -74.10170
       40.33970       -24.53060       -75.15660
       39.99660       -24.68790       -75.63710
       39.87410       -23.60720       -55.20820
       40.20500       -23.64320       -56.00770
       40.54640       -23.77200       -56.77260
       40.81390       -23.74380       -73.18890
       40.56530       -23.60870       -74.07760
       40.26100       -23.64860       -75.13500
       39.57260       -22.20060       -54.57720
       39.89490       -22.61230       -55.18330
       40.21750       -22.46780       -56.00260
       40.55230       -22.45690       -56.76780
       40.84330       -22.61300       -73.31210
       40.59260       -22.56980       -74.19230
       40.43780       -22.43320       -74.97050
       39.56390       -21.70260       -54.52480
       39.79390       -21.60870       -55.16840
       40.11060       -21.55930       -56.07730
       40.49640       -21.50190       -56.89090
       40.72430       -21.48120       -73.20950
       40.47050       -21.68990       -74.10580
       40.42650       -21.59490       -75.03920
       39.99300       -21.16800       -75.71430
       39.54350       -20.46260       -54.60100
       39.75880       -20.52990       -55.18530
       40.06450       -20.67170       -56.10000
       40.43890       -20.64630       -56.84570
       40.73640       -20.62120       -73.19000
       40.49440       -20.60230       -74.08000
       40.44390       -20.47300       -75.01150
       40.05260       -20.85640       -75.62070
       39.76660       -19.68300       -55.16630
       40.09600       -19.62610       -56.03410
       40.52160       -19.64730       -56.92210
       40.72650       -19.57000       -73.24480
       40.48790       -19.61330       -74.05690
       40.21750       -19.61170       -74.86930
       39.68250       -18.74070       -55.32060
       39.99180       -18.68540       -56.13680
       40.33610       -18.65480       -56.99610
       40.55380       -18.19880       -57.65680
       40.81600       -18.31790       -72.25050
       40.52910       -18.50190       -73.14480
       40.39020       -18.59930       -74.03400
       40.11540       -18.43060       -74.68650
       39.74600       -17.72920       -56.28120
       40.05950       -17.64030       -57.06910
       40.43350       -17.50730       -57.80350
       40.67260       -17.57460       -72.20410
       40.40480       -17.64540       -73.05730
       40.42040       -17.87530       -74.01680
       39.98160       -18.00650       -74.72560
       39.60420       -16.86150       -56.44060
       39.90480       -16.64660       -57.20570
       40.28540       -16.60790       -57.97770
       40.53370       -16.37790       -58.97660
       40.62670       -16.18370       -59.97040
       40.86390       -16.25180       -70.27560
       40.69590       -16.43600       -71.11030
       40.52720       -16.52400       -72.18380
       40.33900       -16.60620       -72.97790
       40.08320       -16.67820       -73.92040
       39.85940       -15.68240       -57.34830
       40.07960       -15.59410       -58.06770
       40.25120       -15.60890       -59.09930
       40.40110       -15.55560       -59.96510
       40.56140       -15.42120       -60.85690
       40.82800       -15.36830       -69.30380
       40.59960       -15.52640       -70.07820
       40.39600       -15.63250       -71.09370
       40.43890       -15.67330       -72.04100
       40.10170       -15.72820       -72.86320
       39.62090       -14.96180       -57.40200
       39.89930       -14.70970       -58.28160
       40.00270       -14.58570       -59.14100
       40.15150       -14.61310       -60.10310
       40.35000       -14.50240       -61.03520
       40.66880       -14.46450       -61.93960
       40.69850       -14.37340       -63.12100
       40.70820       -14.48300       -63.91820
       40.73750       -14.32290       -64.88050
       40.75430       -14.13020       -67.43260
       40.82400       -14.50270       -68.28140
       40.63080       -14.56480       -69.23010
       40.34640       -14.60860       -70.09600
       40.14760       -14.63650       -71.00370
       40.06660       -14.57250       -72.02270
       39.67760       -13.97650       -58.54680
       39.81940       -13.83080       -59.13480
       40.06310       -13.69640       -60.22320
       40.20310       -13.61440       -61.07020
       40.38990       -13.49950       -62.09180
       40.33740       -13.59740       -63.05630
       40.36530       -13.57770       -64.08450
       40.41140       -13.49490       -65.08300
       40.54520       -13.43880       -65.96290
       40.40060       -13.50450       -67.06880
       40.29700       -13.61690       -68.07850
       40.33010       -13.60430       -69.11890
       40.34150       -13.58020       -69.89720
       39.98330       -13.76270       -70.99010
       39.90350       -13.57800       -71.59970
       39.63770       -13.09460       -59.49650
       39.74240       -12.88270       -60.30570
       39.94120       -12.87390       -61.27890
       40.04940       -12.68580       -62.07650
       40.10110       -12.68160       -63.11960
       40.19030       -12.69730       -64.18810
       40.26370       -12.66770       -65.07330
       40.25170       -12.60660       -66.05620
       40.07050       -12.69980       -67.06470
       40.10330       -12.88270       -68.10040
       40.00420       -12.84430       -69.11320
       39.93300       -12.70630       -69.98000
       39.70970       -12.11350       -62.41330
       39.91650       -11.91880       -63.14500
       39.87200       -11.65880       -64.18270
       40.04700       -11.85010       -64.91680
       39.93890       -11.75060       -66.11510
       39.85050       -12.05600       -66.64480
       38.74630       -34.26400       -63.23410
       38.81300       -34.30960       -64.08570
       38.78720       -34.41250       -65.06490
       38.78300       -34.41140       -66.04730
       38.80930       -34.12700       -66.96460
       39.13240       -33.58970       -63.15090
       39.23510       -33.58650       -64.06810
       39.16210       -33.62340       -65.11600
       39.20510       -33.62140       -66.14160
       39.21050       -33.51920       -67.06360
       39.06740       -33.38610       -68.00610
       39.02280       -33.22220       -69.03880
       38.88140       -33.32800       -70.03470
       39.59530       -32.81350       -62.99100
       39.50590       -32.87270       -64.13720
       39.48730       -32.78310       -65.16480
       39.50510       -32.81250       -66.01160
       39.64560       -32.81080       -67.15580
       39.59840       -32.67600       -68.20910
       39.41520       -32.71610       -69.16690
       39.32550       -32.59420       -70.08750
       39.06060       -32.51730       -70.90630
       39.82700       -32.06720       -68.56640
       39.74700       -31.74230       -69.14490
       39.60470       -31.71140       -70.14610
       39.41270       -31.71160       -71.12540
       39.22580       -31.49820       -71.96760
       39.03380       -31.26850       -72.88330
       39.81180       -30.98490       -70.40420
       39.84410       -30.82780       -71.21130
       39.57310       -30.68350       -72.15880
       39.37100       -30.56670       -72.93830
       38.98390       -30.50350       -73.92810
       39.02310       -29.13290       -56.34160
       39.31870       -29.62370       -57.02860
       39.71270       -29.75690       -72.34530
       39.48370       -29.63280       -73.12270
       39.21400       -29.55010       -73.98570
       38.99130       -29.43100       -74.96550
       39.89960       -28.94540       -72.52840
       39.66730       -28.70770       -73.25490
       39.40120       -28.64650       -74.12610
       39.34350       -28.56250       -75.01530
       38.62980       -27.48760       -54.32680
       39.84420       -27.92470       -73.36400
       39.65100       -27.88540       -74.18750
       39.44770       -27.59560       -75.10230
       39.08550       -27.35000       -75.79130
       38.86920       -26.61310       -54.43630
       39.28320       -26.58100       -55.01810
       39.96030       -26.92980       -74.36970
       39.48910       -26.58890       -75.21090
       39.15500       -26.52610       -75.94360
       38.59610       -25.14430       -53.43060
       39.14810       -25.47760       -54.35970
       39.33250       -25.73870       -54.85930
       39.63560       -25.63870       -75.37260
       39.43380       -25.49740       -75.99550
       39.04780       -25.27620       -76.78490
       38.68990       -24.64760       -53.47080
       39.05000       -24.56430       -54.10490
       39.47080       -24.65480       -54.86600
       39.93050       -24.71690       -75.16280
       39.47140       -24.63900       -76.10450
       39.21920       -24.36910       -76.97960
       38.61110       -23.67400       -53.41200
       39.05060       -23.60170       -54.07910
       39.51690       -23.68090       -54.69420
       39.82700       -23.60990       -75.39600
       39.41600       -23.61540       -76.07820
       39.07290       -23.51650       -76.90500
       38.57370       -22.55910       -53.34100
       39.05160       -22.59850       -54.03320
       39.52060       -22.80480       -54.70970
       39.83820       -22.70410       -75.29780
       39.42810       -22.54170       -76.12100
       39.21190       -22.80590       -76.83220
       38.64540       -21.64550       -53.28110
       39.13200       -21.65130       -53.98250
       39.52350       -21.33110       -54.63420
       39.70350       -21.65250       -75.55980
       39.51090       -21.58100       -76.09600
       39.28650       -21.59540       -76.74900
       38.70980       -20.74340       -53.39800
       39.11320       -20.56220       -54.06210
       39.51730       -20.35010       -54.70600
       39.86470       -20.53860       -75.34100
       39.55150       -20.63190       -76.07130
       39.31810       -20.51330       -76.92450
       38.53150       -19.88980       -53.48950
       38.97460       -19.64150       -54.10090
       39.44410       -19.61610       -54.78220
       39.62460       -19.59780       -75.29240
       39.52520       -19.58530       -76.10420
       39.04850       -19.65820       -77.02710
       38.85650       -18.61410       -54.22470
       39.31580       -18.51330       -54.87880
       39.93710       -18.49550       -74.53890
       39.53740       -18.60020       -75.12380
       39.44470       -18.71300       -75.82090
       39.06030       -18.90290       -76.83110
       38.81630       -17.56950       -54.27230
       39.19320       -17.60280       -55.09500
       39.44250       -17.46740       -55.86250
       39.86010       -17.65460       -74.43540
       39.44710       -17.63540       -75.10010
       39.34010       -17.53730       -75.71160
       38.69290       -16.70650       -54.44280
       39.03480       -16.66020       -55.15090
       39.31420       -16.63870       -56.09490
       39.55780       -16.58310       -56.66370
       39.89850       -16.32400       -73.43060
       39.56370       -16.46970       -74.10810
       39.34500       -16.58460       -75.07410
       39.12730       -16.72440       -76.03030
       38.78500       -15.65170       -55.19770
       39.17430       -15.59710       -56.11590
       39.47790       -15.56330       -56.80910
       39.91570       -15.17620       -72.59670
       39.59460       -15.48410       -73.21780
       39.31010       -15.60930       -74.10820
       39.14330       -15.82040       -75.12670
       38.56900       -14.88380       -55.33840
       38.93380       -14.72330       -56.26620
       39.15500       -14.59480       -57.11470
       39.46100       -14.42360       -57.94430
       39.84870       -14.34540       -71.54810
       39.73670       -14.61050       -72.38000
       39.46000       -14.61200       -73.06970
       39.08120       -14.84230       -73.88810
       38.60340       -14.09340       -56.45190
       38.78500       -13.73310       -57.32210
       39.08690       -13.61300       -58.13790
       39.52420       -13.43180       -58.93740
       39.81590       -13.19240       -70.34070
       39.61280       -13.42250       -71.24540
       39.41720       -13.60820       -72.07690
       39.43030       -13.76460       -73.05110
       38.89450       -12.74590       -58.33580
       39.17970       -12.58790       -59.07750
       39.28370       -12.58120       -60.10450
       39.45940       -12.54320       -61.01550
       39.60140       -12.32070       -62.05820
       39.74590       -12.38320       -67.15910
       39.55000       -12.42530       -68.10510
       39.57580       -12.41860       -69.09960
       39.52730       -12.57630       -70.13390
       39.43100       -12.72790       -71.06300
       39.14440       -12.77470       -71.94510
       39.03100       -13.11400       -73.04090
       38.63340       -11.91300       -58.50870
       38.84000       -11.85370       -59.26670
       38.91930       -11.79100       -60.16900
       39.03770       -11.69550       -61.14290
       39.19150       -11.60110       -62.07300
       39.46430       -11.53600       -63.00920
       39.38720       -11.41050       -64.19050
       39.42490       -11.45090       -65.05000
       39.47720       -11.39720       -66.07210
       39.38790       -11.71440       -67.15730
       39.34960       -11.59750       -68.09700
       39.30400       -11.64190       -69.10790
       39.14350       -11.68530       -70.06600
       39.00320       -11.80620       -70.63450
       38.69580       -10.96490       -61.36710
       38.80580       -10.63900       -62.24440
       39.11160       -10.62670       -63.14940
       39.04480       -10.78070       -64.08060
       39.11350       -10.72250       -65.15530
       39.16790       -10.76370       -66.07040
       39.17000       -10.75320       -67.14870
       39.01070       -10.68580       -68.17580
       38.92200       -10.77770       -69.00870
       38.87920       -11.05290       -69.88080
       37.93420       -35.27370       -63.05500
       37.85040       -35.24580       -64.04180
       37.81470       -35.33610       -65.02700
       37.95880       -35.46280       -66.30160
       37.98880       -35.38510       -66.99900
       37.83410       -35.12440       -67.93980
       38.33860       -34.74060       -63.18120
       38.35210       -34.76190       -64.10110
       38.23150       -34.89300       -65.01270
       38.42570       -34.81700       -66.17350
       38.37630       -34.63370       -67.09630
       38.15440       -34.61620       -68.04270
       38.06440       -34.46540       -69.07750
       38.03910       -34.48990       -70.14580
       37.90650       -34.33200       -70.96210
       38.69720       -33.96170       -67.38390
       38.50440       -33.90010       -68.24980
       38.49020       -33.79370       -69.12800
       38.51210       -33.70850       -70.04850
       38.32390       -33.61170       -71.06240
       37.95760       -33.41520       -72.09810
       38.82540       -33.11600       -70.55460
       38.63300       -32.77850       -71.27040
       38.35670       -32.60390       -72.07600
       38.15750       -32.37700       -72.99250
       37.99330       -32.37540       -73.81930
       38.77670       -31.73080       -72.31310
       38.52290       -31.69460       -73.11500
       38.35060       -31.53560       -74.12470
       37.99380       -31.44410       -74.67530
       38.30540       -30.14730       -55.50280
       38.91070       -30.91480       -73.52110
       38.59730       -30.69770       -74.33680
       38.35000       -30.57470       -74.92430
       38.53730       -29.80300       -55.84220
       38.88320       -29.82170       -74.44920
       38.52860       -29.66110       -75.12590
       38.25070       -29.41990       -75.93230
       38.38130       -28.93620       -54.95230
       38.79700       -28.76220       -75.38130
       38.49460       -28.59750       -76.14480
       38.23040       -28.52030       -76.87120
       37.89000       -27.45800       -53.23260
       38.20110       -27.67290       -53.79170
       38.92040       -27.85580       -75.58440
       38.58560       -27.66150       -76.12040
       38.30810       -27.69310       -76.91100
       37.55520       -26.40850       -52.35640
       38.00510       -26.57430       -53.18580
       38.24080       -26.78570       -53.67180
       38.71420       -26.56980       -76.28780
       38.42220       -26.53810       -77.15210
       38.17710       -26.38490       -77.79710
       37.71580       -25.54210       -52.33960
       38.10600       -25.84310       -53.07880
       38.46950       -26.02930       -53.77250
       38.82050       -25.80180       -76.42190
       38.55890       -25.64460       -77.12730
       38.25420       -25.55800       -78.07040
       37.78270       -24.55970       -52.23710
       38.26180       -24.57670       -52.97550
       38.64040       -24.69410       -77.34910
       38.45800       -24.55030       -78.00180
       37.79930       -23.62990       -52.20130
       38.23210       -23.62360       -53.00590
       38.72760       -23.60180       -77.19500
       38.45220       -23.55490       -78.04750
       37.47710       -22.71050       -51.62970
       37.85170       -22.64780       -52.23270
       38.27160       -22.65610       -53.02850
       38.73130       -22.70270       -77.16930
       38.51950       -22.69840       -78.06230
       37.90320       -21.65840       -52.15720
       38.34110       -21.68690       -52.88500
       38.75930       -21.68010       -77.23290
       38.47330       -21.55470       -78.10840
       37.86760       -20.67390       -52.17520
       38.19920       -20.47620       -52.89270
       38.74710       -20.66450       -77.27750
       38.34700       -20.67100       -77.96490
       37.71270       -19.64600       -52.30750
       38.11800       -19.56330       -53.07840
       38.48890       -19.39470       -53.64230
       38.98730       -19.55150       -76.28380
       38.60510       -19.50520       -77.20160
       38.23730       -19.52530       -78.01460
       37.62320       -18.75690       -52.37040
       38.00250       -18.61400       -53.08950
       38.46750       -18.34700       -53.84660
       38.86200       -18.63680       -76.14100
       38.54990       -18.64510       -77.14580
       38.25210       -18.58120       -77.95980
       37.60700       -17.65590       -52.51680
       37.95110       -17.63250       -53.11710
       38.41490       -17.58270       -53.80910
       38.77330       -17.57940       -76.27590
       38.45260       -17.64130       -77.11690
       38.11650       -17.79790       -78.00010
       37.54680       -17.09840       -52.61380
       37.89440       -16.74740       -53.35100
       38.20060       -16.58910       -54.04660
       38.45980       -16.17320       -54.63310
       38.97480       -16.29880       -75.28890
       38.50610       -16.55630       -76.25520
       38.32730       -16.64560       -76.94050
       37.57650       -15.83500       -53.60120
       37.89650       -15.68870       -54.14620
       38.37690       -15.51390       -54.93050
       38.88110       -15.27850       -74.38790
       38.65280       -15.50890       -75.25980
       38.44370       -15.64030       -76.05850
       37.74250       -14.75080       -54.41880
       38.07680       -14.59550       -55.00130
       38.46140       -14.27950       -55.98800
       38.90440       -14.14280       -73.57440
       38.71590       -14.64590       -74.26100
       38.45500       -14.60840       -75.09870
       38.25420       -14.78370       -76.20150
       37.54390       -13.71540       -54.59030
       37.92310       -13.67500       -55.20010
       38.14880       -13.60260       -56.07770
       38.46120       -13.50080       -57.02530
       38.57630       -13.19460       -57.63840
       38.78320       -13.37710       -73.37540
       38.53800       -13.59380       -74.13310
       38.28930       -13.65540       -75.00480
       38.01930       -13.87000       -75.82980
       37.54370       -12.75580       -55.35900
       37.84790       -12.74790       -56.18820
       38.12340       -12.64660       -57.10390
       38.39590       -12.40720       -57.90810
       38.78180       -12.31910       -71.31030
       38.59920       -12.49520       -72.12310
       38.42630       -12.61350       -73.12710
       38.33420       -12.69250       -73.98270
       38.01040       -13.00030       -74.78990
       37.74170       -11.73930       -56.51100
       37.91500       -11.65280       -57.28520
       38.17210       -11.58400       -58.13520
       38.45920       -11.44290       -59.18520
       38.59170       -11.48820       -60.03140
       38.64910       -11.25230       -60.93100
       38.78820       -11.50660       -70.30180
       38.42530       -11.57770       -71.17270
       38.39320       -11.72500       -72.04100
       38.25450       -11.89230       -73.17910
       38.03450       -12.03250       -73.67430
       37.81730       -10.97360       -58.34710
       38.04910       -10.72180       -59.17450
       38.17740       -10.61000       -60.12940
       38.34380       -10.58430       -61.07480
       38.52270       -10.41070       -62.04820
       38.62670       -10.31210       -63.12280
       38.50530       -10.28950       -64.11910
       38.56050       -10.37740       -65.08320
       38.63520       -10.39520       -66.18850
       38.68540       -10.23270       -67.07140
       38.51000       -10.35540       -68.22160
       38.41380       -10.49800       -69.17700
       38.38300       -10.62710       -70.14790
       38.35600       -10.83670       -71.10230
       37.96330       -10.73010       -71.83970
       37.63560        -9.99170       -59.54170
       37.88890        -9.87010       -60.26410
       37.98880        -9.74100       -61.16780
       38.15150        -9.64680       -62.12250
       38.24710        -9.60560       -63.15790
       38.20730        -9.62140       -64.08570
       38.23620        -9.64970       -65.08170
       38.26300        -9.62980       -66.09570
       38.31450        -9.59620       -67.15600
       38.24770        -9.76330       -68.09270
       37.92570        -9.80180       -69.10600
       37.93150        -9.89150       -70.21190
       38.00120       -10.09440       -70.95700
       37.98400        -9.00250       -63.15740
       37.88950        -8.80060       -63.89630
       37.80730        -8.90040       -65.11000
       37.96790        -8.88870       -66.07160
       37.91320        -8.88540       -67.24390
       37.02250       -36.37460       -63.08760
       36.94570       -36.39450       -64.07500
       36.97030       -36.43540       -65.19560
       37.12210       -36.45180       -66.22210
       37.28270       -36.14650       -67.02410
       36.96510       -36.18820       -69.12650
       37.42570       -35.78980       -63.21330
       37.37500       -35.74930       -64.21780
       37.41310       -35.79060       -65.17870
       37.51240       -35.88910       -66.09320
       37.56040       -35.81410       -67.24040
       37.45910       -35.69970       -68.18700
       37.37010       -35.64870       -69.11000
       37.22730       -35.52580       -69.93820
       37.02540       -35.19970       -70.88350
       37.79790       -35.03880       -68.17040
       37.78020       -34.84510       -69.23330
       37.69240       -34.85300       -70.23870
       37.65300       -34.54880       -71.09270
       37.27130       -34.54560       -72.13090
       37.12730       -34.38040       -72.90220
       37.87860       -33.86950       -71.55090
       37.64530       -33.76600       -72.24880
       37.45100       -33.62320       -73.17050
       37.22850       -33.40190       -74.01420
       37.89650       -33.01190       -72.37950
       37.81520       -32.77150       -73.21220
       37.54370       -32.66370       -74.23940
       37.30680       -32.48180       -75.00870
       37.88420       -31.80360       -74.50630
       37.49530       -31.64300       -75.18010
       37.08860       -31.38760       -75.98630
       36.61820       -30.44470       -53.28810
       37.76380       -30.74310       -75.27610
       37.35200       -30.59410       -76.13200
       37.07330       -30.56460       -76.85580
       36.92790       -29.78700       -53.39040
       37.65760       -29.74520       -76.31140
       37.44670       -29.59630       -77.17260
       37.13640       -29.30910       -77.77800
       37.71720       -28.71950       -77.21210
       37.33320       -28.49860       -77.89840
       36.60300       -27.31750       -51.56410
       36.95140       -27.19010       -51.92960
       37.85250       -27.62700       -77.40060
       37.52800       -27.50740       -78.12290
       36.62760       -26.40470       -51.37390
       37.15160       -26.64920       -52.05620
       37.96840       -26.87730       -77.45150
       37.67290       -26.63250       -78.13210
       36.66570       -25.57250       -51.36600
       37.13810       -25.69530       -51.95280
       37.66790       -25.67440       -78.35640
       36.85220       -24.63910       -51.31990
       37.18630       -24.71440       -51.77580
       37.74320       -24.65950       -78.32690
       36.46330       -23.60260       -50.53480
       36.96800       -23.62240       -51.14910
       37.41930       -23.67540       -51.67560
       37.91470       -23.71440       -78.29970
       36.45460       -22.88560       -50.62680
       36.93550       -22.62060       -51.15830
       37.43490       -22.63680       -51.66860
       36.93720       -21.58520       -51.25160
       37.27240       -21.52040       -51.69320
       38.02770       -21.43870       -78.23360
       36.88400       -20.66400       -51.19830
       37.38110       -20.60920       -51.72200
       37.80440       -20.77170       -78.21360
       36.88410       -19.59780       -51.19660
       37.36580       -19.45600       -51.88290
       37.69370       -19.67560       -78.18120
       36.87800       -18.69730       -51.37820
       37.32060       -18.56430       -52.00560
       37.76890       -18.67510       -78.15210
       36.72990       -17.73950       -51.57600
       37.12410       -17.65240       -52.01670
       37.89850       -17.35410       -77.38650
       37.57470       -17.59930       -78.12020
       36.57800       -16.93430       -51.64860
       36.94760       -16.63280       -52.18480
       37.28140       -16.37970       -52.93670
       38.00660       -16.20330       -76.62350
       37.59570       -16.60400       -77.26330
       37.55610       -16.67830       -77.90280
       36.67200       -15.72350       -52.28640
       37.04810       -15.63930       -53.10670
       37.42420       -15.46090       -53.78200
       37.75950       -15.56740       -76.58840
       37.45700       -15.59240       -77.08740
       37.13290       -15.68240       -77.93650
       36.47820       -14.81320       -52.48740
       36.85410       -14.70050       -53.20750
       37.27110       -14.49760       -54.05250
       37.66280       -14.66200       -76.35310
       37.31280       -14.54740       -76.98370
       37.04050       -14.98550       -77.67960
       36.58930       -13.63220       -53.25780
       37.11880       -13.63870       -54.11470
       37.49620       -13.57950       -54.78440
       37.72260       -13.45420       -75.23420
       37.52350       -13.57890       -76.16970
       37.27020       -13.93240       -76.96600
       36.74870       -12.84450       -54.29560
       37.04760       -12.57780       -55.07200
       37.53660       -12.47160       -55.80550
       37.63750       -12.53420       -74.37450
       37.34680       -12.66220       -75.12700
       37.20220       -12.92780       -76.08040
       36.82400       -11.73260       -55.49160
       37.06190       -11.47490       -56.10650
       37.44890       -11.31250       -57.05210
       37.89270       -11.36380       -72.26080
       37.74530       -11.43280       -73.17450
       37.38300       -11.67110       -74.09890
       37.03150       -11.90280       -75.03570
       36.77230       -10.75860       -56.28110
       37.03260       -10.70010       -57.19430
       37.19560       -10.56010       -58.12350
       37.37200       -10.25780       -59.01450
       37.83370       -10.49210       -71.29820
       37.56380       -10.60190       -72.24880
       37.37240       -10.67930       -73.16150
       37.07710       -10.68930       -73.94850
       36.59450       -10.02620       -57.49850
       36.77440        -9.86160       -58.28820
       37.06690        -9.67500       -59.16920
       37.32450        -9.47480       -59.97780
       37.44250        -9.29600       -61.04960
       37.55790        -9.27210       -61.90740
       37.69270        -9.13950       -62.71880
       37.80650        -9.29850       -67.48600
       37.66620        -9.42380       -68.15560
       37.50400        -9.54820       -69.23860
       37.45440        -9.60590       -70.17990
       37.41080        -9.60580       -71.13230
       37.31990        -9.83300       -71.95930
       36.96520       -10.01250       -72.82260
       36.74760        -8.94160       -59.41820
       36.93440        -8.77990       -60.17260
       37.03860        -8.78530       -61.26990
       37.11530        -8.65980       -62.19120
       37.25890        -8.59080       -63.13260
       37.45070        -8.53310       -64.11870
       37.43950        -8.49480       -65.15210
       37.47460        -8.50840       -66.18840
       37.34360        -8.58660       -67.22240
       37.31540        -8.61530       -68.21760
       37.09650        -8.79650       -69.20740
       37.00760        -8.76730       -70.28340
       36.96250        -8.98780       -71.12830
       36.98250        -7.90500       -63.39070
       36.99620        -7.76910       -64.09060
       37.18300        -7.92010       -65.08440
       36.95960        -7.83460       -66.07940
       37.16530        -7.94110       -67.15190
       36.86110        -7.89380       -68.12850
       36.08740       -37.39650       -63.26090
       36.24010       -37.33570       -64.17770
       36.09990       -37.53740       -65.22710
       36.08150       -37.42910       -66.14330
