-2.292768	1.032715	1.808251
-2.233884	0.900676	1.756104
-2.210952	0.855270	1.742510
-0.963308	0.108522	1.816420
-2.024827	0.525869	1.705821
-1.922187	0.440066	1.684798
-1.712146	0.290370	1.680391
-1.560713	0.216025	1.688671
-1.019367	0.100882	1.803954
-1.444498	0.180087	1.694575
-1.365162	0.154919	1.709226
-1.293460	0.148640	1.713519
-1.223788	0.124683	1.738730
-1.154874	0.127122	1.744776
-1.086029	0.120597	1.765365
-0.903321	0.126357	1.823595
-0.730069	0.167080	1.883693
-0.660974	0.181605	1.920713
-0.596268	0.200181	1.958444
-0.486160	0.268052	2.002556
-0.424177	0.300438	2.043587
-0.256441	0.433802	2.169198
-0.187431	0.518119	2.227294
-0.137678	0.595687	2.272471
-0.083090	0.699524	2.338873
-0.006455	0.958521	2.495266
0.002181	1.101758	2.566072
-0.000103	1.156764	2.589439
-0.010305	1.261102	2.650813
-0.190465	1.722392	2.819649
-0.305692	1.871249	2.878105
-0.765743	2.216316	2.910116
-0.881988	2.266517	2.894919
-0.929975	2.281195	2.900717
-1.102044	2.324730	2.870417
-1.459944	2.340948	2.786498
-1.655369	2.307551	2.710614
-1.761387	2.273430	2.663613
-1.881576	2.219208	2.605099
-1.992883	2.151686	2.539598
-2.231462	1.919631	2.365008
-2.309758	1.768911	2.244565
-2.374510	1.586196	2.141613
-2.390668	1.519103	2.109585
-2.396587	1.218451	1.966131
-2.376451	1.170876	1.927066
-2.335355	0.979387	1.862898
-2.275207	0.868313	1.808915
-2.213309	0.772811	1.767141
-2.136182	0.654403	1.735548
-2.070406	0.492715	1.753829
-2.047186	0.453730	1.756588
-1.997462	0.420607	1.741874
-1.938397	0.362454	1.739400
-1.840417	0.304274	1.725398
-1.810321	0.293969	1.717526
-1.682201	0.194089	1.737878
-1.473095	0.112605	1.753692
-1.398163	0.098741	1.758453
-1.248171	0.063162	1.791888
-1.635388	0.237205	1.692612
-1.197704	0.064657	1.795729
-1.139240	0.060291	1.809955
-1.065662	0.070733	1.818327
-1.021326	0.054412	1.847663
-0.984448	0.057853	1.857795
-0.886064	0.075582	1.883346
-0.788505	0.093725	1.919975
-0.696726	0.113537	1.962934
-0.656559	0.133853	1.973956
-0.574668	0.161643	2.019698
-0.446314	0.228477	2.091575
-0.413418	0.253278	2.107889
-0.370836	0.276831	2.142990
-0.338893	0.307432	2.159624
-0.308005	0.328479	2.186816
-0.270077	0.371356	2.207999
-1.827065	0.338099	1.697956
-0.243386	0.393692	2.234246
-0.212127	0.437278	2.253077
-0.184612	0.458589	2.290983
-0.131780	0.541342	2.338473
-0.114703	0.569736	2.357654
-0.057517	0.691021	2.429974
-0.037415	0.740766	2.466517
-1.880582	0.385272	1.694888
-0.024351	0.768266	2.499385
-0.016767	0.813604	2.507278
-0.012540	1.294854	2.756093
-0.043341	1.405838	2.775161
-0.101308	1.550502	2.853144
-0.139309	1.625432	2.876681
-0.157228	1.658022	2.875405
-0.225275	1.757713	2.926682
-0.248505	1.787825	2.941911
-0.324173	1.880267	2.946161
-0.358971	1.916299	2.953207
-2.024071	0.495671	1.720642
-0.525791	2.060835	2.979467
-0.555580	2.082024	2.981817
-0.676574	2.154644	3.004667
-1.048634	2.300598	2.982760
-1.352245	2.340235	2.909822
-1.389106	2.340280	2.899476
-1.590145	2.321313	2.821084
-2.081867	0.549075	1.736771
-1.621463	2.315274	2.809217
-1.719320	2.290715	2.775793
-1.850831	2.242125	2.712786
-1.972467	2.179146	2.646680
-2.083241	2.102093	2.576504
-2.151462	2.043378	2.529512
-2.182050	2.013921	2.507922
-2.218959	1.973027	2.476832
-2.245749	1.940038	2.452073
-2.291512	1.871541	2.397303
-2.311850	1.839386	2.375762
-2.337979	1.798040	2.354747
-2.354811	1.763702	2.332111
-2.388582	1.678504	2.276191
-2.420131	1.581677	2.221799
-2.429298	1.548577	2.204448
-2.434468	1.499181	2.170593
-2.438765	1.469445	2.154351
-2.450051	1.412988	2.133797
-2.447695	1.375041	2.107440
-2.448190	1.325797	2.082343
-2.438763	1.275000	2.045787
-2.431119	1.226999	2.017950
-2.231153	0.813673	1.773638
-2.417343	1.102260	1.970539
-2.417212	1.065526	1.966217
-2.373084	0.954507	1.907962
-2.361576	0.929165	1.896812
-2.298624	0.783126	1.848985
-2.148233	0.580330	1.774376
-2.131521	0.537315	1.779156
-2.114624	0.464956	1.798172
-2.067712	0.409150	1.792296
-2.037030	0.372372	1.791339
-1.994394	0.336361	1.785249
-1.950758	0.304215	1.779509
-1.908352	0.281638	1.771395
-1.832921	0.240286	1.762404
-1.759418	0.190976	1.765844
-1.718443	0.160302	1.772353
-1.667406	0.135992	1.774516
-1.614921	0.115340	1.776964
-1.541418	0.101717	1.772654
-1.500575	0.079476	1.783505
-1.440999	0.060308	1.792693
-1.376346	0.046540	1.801699
-2.336246	1.059376	1.863240
-1.306053	0.040700	1.807914
-1.264305	0.025677	1.823417
-1.213088	0.018016	1.835658
-1.169683	0.008047	1.851784
-1.094398	0.017903	1.859743
-1.040055	0.018078	1.875104
-1.000040	0.013578	1.893017
-0.941758	0.026243	1.904841
-0.902304	0.025125	1.924023
-0.845734	0.040089	1.938796
-0.806849	0.042022	1.959418
-0.751829	0.061135	1.975868
-0.705948	0.074360	1.995471
-0.668648	0.079017	2.019233
-0.616881	0.106052	2.036574
-0.580934	0.115564	2.060206
-0.538628	0.135447	2.082175
-0.490903	0.167961	2.101429
-0.450934	0.189812	2.125665
-0.412179	0.213263	2.150372
-2.401084	1.278089	1.990687
-0.374929	0.239806	2.174290
-0.339046	0.267850	2.198584
-0.304587	0.297349	2.223214
-0.271609	0.328257	2.248141
-0.240163	0.360524	2.273326
-0.210300	0.394099	2.298727
-0.185808	0.417894	2.326646
-0.155978	0.466258	2.348615
-0.131141	0.503424	2.374421
-0.110301	0.529070	2.404180
-0.089265	0.569659	2.428444
-0.067913	0.622249	2.450444
-0.049797	0.662154	2.477678
-0.033553	0.702920	2.504819
-0.019759	0.745623	2.530322
-0.008521	0.777535	2.558622
0.001050	0.822715	2.581985
0.008641	0.868417	2.605057
0.014917	0.913423	2.629611
0.019200	0.958849	2.653817
0.021480	1.006306	2.678489
0.021683	1.054044	2.702719
0.021597	1.088959	2.730176
0.017457	1.139737	2.754723
0.008233	1.204596	2.775169
-0.000673	1.252773	2.786564
-0.009978	1.296272	2.818674
-0.028369	1.362235	2.846901
-0.054372	1.437620	2.875552
-0.075726	1.491808	2.899190
-0.096662	1.536283	2.930001
-0.134984	1.609475	2.953558
-0.158841	1.651898	2.948168
-0.196497	1.707724	2.984074
-2.352144	1.661014	2.182390
-0.227111	1.750979	2.999295
-0.255945	1.789064	2.999743
-0.295175	1.834846	3.020686
-0.328221	1.872817	3.023298
-0.366806	1.910217	3.043356
-2.334083	1.715209	2.215161
-0.429820	1.967231	3.061155
-0.499346	2.026815	3.060458
-0.540122	2.058977	3.057954
-0.592018	2.094405	3.059090
-0.658663	2.134588	3.070217
-0.710741	2.163929	3.070425
-0.758278	2.188173	3.067399
-0.802435	2.207237	3.077871
-2.287739	1.809495	2.263188
-0.855120	2.229731	3.074440
-0.901008	2.248792	3.057945
-0.960415	2.268816	3.051374
-1.010822	2.285300	3.037946
-1.065722	2.299492	3.029691
-2.257537	1.865716	2.302422
-1.109017	2.309779	3.012086
-1.176779	2.319508	3.020193
-1.243698	2.328273	3.005808
-1.314077	2.335117	2.977870
-1.357423	2.337374	2.958115
-1.396724	2.336658	2.966859
-1.445878	2.335172	2.950349
-1.494651	2.331825	2.933004
-1.548471	2.326454	2.906563
-1.597319	2.319516	2.891026
-1.641270	2.311686	2.885424
-1.691952	2.299819	2.854433
-1.734277	2.288669	2.845678
-2.171971	1.980892	2.373829
-1.779934	2.274578	2.825700
-1.827475	2.256689	2.792758
-1.868661	2.241092	2.783786
-1.911482	2.221791	2.761968
-2.131544	2.029014	2.416839
-1.955083	2.198174	2.727234
-1.993903	2.178133	2.716678
-2.033272	2.153899	2.693332
-2.072277	2.124953	2.657191
-2.108203	2.100698	2.645315
-2.092149	2.071311	2.465727
-2.144779	2.068487	2.609920
-2.178416	2.038041	2.585041
-2.211562	2.006199	2.561309
-2.242115	1.973040	2.535925
-2.271232	1.942488	2.521274
-2.297194	1.903079	2.483289
-2.322762	1.866254	2.457451
-2.028629	2.122977	2.498463
-2.347713	1.828189	2.432873
-2.369748	1.789211	2.406938
-2.391795	1.753485	2.391657
-2.407123	1.708769	2.354032
-2.425943	1.671485	2.338661
-2.438164	1.624781	2.302829
-2.450804	1.581595	2.277413
-2.462749	1.537280	2.253385
-2.471468	1.492738	2.228390
-2.478218	1.447718	2.203723
-2.482955	1.402221	2.179363
-1.924400	2.195289	2.567159
-2.485707	1.356397	2.155409
-2.491484	1.314260	2.141409
-2.490272	1.264929	2.116771
-2.481113	1.210593	2.082576
-2.472155	1.154498	2.054551
-2.459364	1.077798	2.021306
-2.447734	1.029357	2.000036
-2.424355	0.957949	1.968236
-2.401422	0.912738	1.941588
-2.385233	0.857732	1.928358
-2.349469	0.760920	1.903538
-1.808434	2.254418	2.629720
-2.325729	0.724785	1.886992
-2.305632	0.691447	1.875549
-2.276806	0.632515	1.864886
-2.242272	0.600454	1.845075
-2.200727	0.564899	1.822568
-2.172529	0.518536	1.817882
-2.185869	0.453027	1.854504
-2.132996	0.396825	1.841024
-2.086250	0.352084	1.831602
-2.060156	0.338316	1.822623
-2.014124	0.299532	1.816208
-1.968960	0.264176	1.811379
-1.942105	0.227083	1.819262
-1.892271	0.193574	1.816352
-1.836806	0.159391	1.814553
-1.787409	0.139690	1.808967
-1.736570	0.121414	1.804638
-1.680077	0.094598	1.807083
-1.649894	0.066092	1.819906
-1.583462	2.324631	2.737221
-1.594546	0.044276	1.824498
-1.541589	0.025741	1.830022
-1.486555	0.008850	1.837026
-1.426339	-0.006799	1.846039
-1.336426	-0.018566	1.855947
-1.508485	2.336455	2.757065
-1.280913	-0.027485	1.867056
-1.233351	-0.026395	1.871576
-1.190969	-0.037191	1.887442
-1.136171	-0.040103	1.901345
-1.083386	-0.040905	1.915775
-1.032671	-0.039702	1.930641
-0.982386	-0.036593	1.946361
-1.440767	2.343646	2.782935
-0.932607	-0.031580	1.962901
-0.883265	-0.024692	1.980265
-0.834437	-0.015941	1.998431
-0.786270	-0.005330	2.017354
-0.738839	0.007124	2.037001
-0.692222	0.021400	2.057344
-0.646492	0.037475	2.078347
-0.601724	0.055325	2.099979
-0.557988	0.074920	2.122204
-0.515354	0.096229	2.144986
-1.286600	2.346746	2.821883
-0.473890	0.119218	2.168290
-0.433664	0.143850	2.192077
-0.394739	0.170086	2.216312
-0.357178	0.197884	2.240953
-1.235450	2.343027	2.834585
-0.321040	0.227199	2.265962
-0.286384	0.257985	2.291299
-0.253265	0.290192	2.316924
-0.221736	0.323769	2.342795
-1.153978	2.333642	2.854084
-0.191847	0.358661	2.368871
-0.163647	0.394814	2.395109
-0.137180	0.432169	2.421470
-0.112488	0.470667	2.447909
-0.089612	0.510245	2.474384
-0.068587	0.550841	2.500855
-0.049448	0.592390	2.527277
-1.081544	2.319813	2.876478
-0.032224	0.634826	2.553610
-0.016945	0.678079	2.579809
-0.003633	0.722082	2.605835
0.007689	0.766763	2.631644
0.017004	0.812052	2.657197
0.024297	0.857876	2.682451
-0.992599	2.301180	2.877681
0.029556	0.904161	2.707368
0.032768	0.952518	2.732757
0.033556	1.016196	2.765209
0.031876	1.064790	2.789343
0.030235	1.102258	2.817271
0.024172	1.152798	2.841157
0.012141	1.217576	2.861156
-0.006650	1.297059	2.896131
-0.029493	1.372326	2.927817
-0.053659	1.438627	2.954591
-0.076745	1.492637	2.975446
-0.102757	1.545583	2.994938
-0.131854	1.599373	3.013991
-0.823874	2.247083	2.880460
-0.159353	1.645642	3.020264
-0.195091	1.699242	3.046772
-0.226252	1.742960	3.050724
-0.257496	1.784364	3.050808
-0.290988	1.822823	3.072954
-0.330157	1.867273	3.072351
-0.386929	1.922941	3.093543
-0.421273	1.951756	3.123570
-0.466887	1.992200	3.118659
-0.720232	2.195198	2.906339
-0.517026	2.031761	3.124587
-0.546622	2.054110	3.118159
-0.630811	2.109054	3.131718
-0.676149	2.135105	3.141561
-0.716811	2.158664	3.132634
-0.765231	2.183246	3.131461
-0.805746	2.203422	3.120876
-0.860329	2.226630	3.117274
-0.917121	2.248208	3.112225
-0.960195	2.262727	3.107460
-0.599431	2.124290	2.908393
-1.028180	2.284159	3.087097
-1.105149	2.300165	3.104467
-1.165970	2.312088	3.093396
-1.218550	2.320768	3.073598
-1.288106	2.328415	3.057905
-0.534261	2.080904	2.903638
-1.356804	2.333016	3.031491
-1.410824	2.333824	3.016705
-1.461345	2.332525	3.001835
-1.511521	2.329334	2.986105
-1.561270	2.324257	2.969540
-1.610513	2.317300	2.952165
-0.468427	2.029117	2.898531
-1.659172	2.308476	2.934010
-1.707169	2.297799	2.915102
-1.754426	2.285285	2.895473
-1.800869	2.270954	2.875153
-0.416065	1.986661	2.876011
-1.846423	2.254831	2.854175
-1.891014	2.236940	2.832573
-1.934572	2.217309	2.810380
-1.977027	2.195971	2.787634
-2.018311	2.172961	2.764369
-2.058358	2.148313	2.740624
-2.097105	2.122068	2.716436
-0.353882	1.925532	2.873832
-2.134489	2.094268	2.691844
-2.170449	2.064957	2.666885
-2.204930	2.034183	2.641603
-2.237875	2.001993	2.616036
-2.269231	1.968441	2.590226
-2.298949	1.933579	2.564213
-2.326982	1.897464	2.538040
-2.353284	1.860152	2.511749
-2.377813	1.821705	2.485381
-2.400530	1.782182	2.458978
-2.421398	1.741649	2.432583
-2.440385	1.700168	2.406239
-2.457453	1.657917	2.380042
-2.472585	1.614846	2.353978
-2.485756	1.571018	2.328086
-2.496949	1.526390	2.302348
-2.506135	1.481144	2.276866
-0.210282	1.751289	2.833887
-2.513319	1.435399	2.251714
-2.518452	1.389149	2.226863
-2.521569	1.342556	2.202424
-2.522601	1.295573	2.178330
-2.527043	1.247513	2.162173
-2.517123	1.206396	2.131582
-2.518875	1.150946	2.115548
-2.508412	1.086471	2.085749
-0.149284	1.655187	2.798222
-2.494564	1.022189	2.057016
-2.475957	0.954994	2.028189
-2.449458	0.878362	1.996790
-2.427499	0.802108	1.977070
-2.387901	0.740802	1.944606
-0.122014	1.605643	2.757183
-2.357348	0.698700	1.922227
-2.328888	0.651370	1.905915
-2.301160	0.609281	1.892090
-2.270008	0.565622	1.878634
-2.233643	0.518989	1.865131
-2.201106	0.381330	1.893069
-0.089681	1.533522	2.743097
-2.122814	0.328838	1.865323
-2.073570	0.284960	1.857242
-2.008177	0.218474	1.856033
-1.954945	0.192577	1.844662
-1.904858	0.159193	1.841843
-1.852926	0.127507	1.840148
-0.058287	1.450611	2.715447
-1.807544	0.090229	1.847382
-1.720315	0.046812	1.850055
-1.664917	0.022453	1.853310
-1.611766	0.001665	1.857805
-1.559490	-0.016554	1.863291
-1.503576	-0.033726	1.870398
-1.460714	-0.053264	1.882420
-0.036355	1.378703	2.675906
-1.401381	-0.067046	1.892124
-1.343495	-0.078083	1.902809
-1.295446	-0.077835	1.906580
-1.241474	-0.084149	1.918554
-1.180460	-0.096365	1.939378
-1.126308	-0.098375	1.953584
-1.074261	-0.098264	1.968276
-1.022527	-0.096206	1.983868
-0.971188	-0.092205	2.000334
-0.920319	-0.086271	2.017648
-0.869999	-0.078412	2.035782
-0.820309	-0.068642	2.054706
-0.771328	-0.056977	2.074391
-0.004129	1.208802	2.609443
-0.723135	-0.043434	2.094805
-0.675807	-0.028035	2.115916
-0.629420	-0.010806	2.137688
-0.584047	0.008227	2.160089
-0.539762	0.029032	2.183081
-0.496634	0.051577	2.206628
-0.454734	0.075826	2.230693
-0.414129	0.101739	2.255236
-0.374882	0.129275	2.280219
-0.337058	0.158391	2.305602
-0.300716	0.189040	2.331343
-0.265914	0.221172	2.357403
-0.232709	0.254736	2.383739
-0.000048	1.057694	2.529494
-0.201154	0.289678	2.410309
-0.171298	0.325944	2.437070
-0.143190	0.363474	2.463981
-0.116875	0.402208	2.490997
-0.004413	0.994995	2.502702
-0.092394	0.442085	2.518074
-0.069788	0.483041	2.545172
-0.049091	0.525010	2.572245
-0.030338	0.567925	2.599251
-0.013558	0.611718	2.626146
0.001223	0.656318	2.652887
0.013979	0.701654	2.679431
-0.015548	0.931600	2.456777
0.024691	0.747653	2.705737
0.033342	0.794243	2.731761
0.039918	0.841348	2.757463
0.044409	0.888893	2.782801
-0.031337	0.866883	2.411902
0.044083	0.942222	2.795624
0.044394	0.998357	2.824136
0.040991	1.043072	2.836561
0.039814	1.083331	2.870101
0.031618	1.135875	2.880916
-0.045974	0.804355	2.388378
0.025945	1.177844	2.909830
0.013143	1.238004	2.936692
-0.005144	1.305760	2.965856
-0.028918	1.380052	3.010876
-0.071620	0.733971	2.347283
-0.052833	1.440719	3.034869
-0.076868	1.493928	3.055051
-0.102726	1.544572	3.073422
-0.131825	1.596047	3.091301
-0.164226	1.648106	3.108547
-0.208025	1.711770	3.114374
-0.259030	1.777825	3.124216
-0.097576	0.674496	2.316061
-0.318100	1.843468	3.164187
-0.390268	1.917219	3.167142
-0.444975	1.966311	3.176612
-0.506473	2.016743	3.175590
-0.549553	2.046171	3.201721
-0.630883	2.101619	3.192831
-0.676826	2.130253	3.185147
-0.718513	2.153320	3.185101
-0.773379	2.181172	3.183771
-0.835511	2.208049	3.193389
-0.914302	2.240624	3.174234
-0.175202	0.555474	2.216713
-0.967287	2.258243	3.177511
-1.058780	2.284638	3.165141
-1.133756	2.301354	3.166605
-1.176048	2.310614	3.136049
-1.242939	2.320249	3.122113
-1.335714	2.328227	3.123404
-1.390537	2.331142	3.095369
-0.216792	0.495947	2.185161
-1.451209	2.331279	3.078372
-1.502703	2.329162	3.062815
-1.553810	2.325113	3.046388
-1.604448	2.319140	3.029119
-1.654537	2.311251	3.011035
-1.703995	2.301459	2.992164
-1.752744	2.289779	2.972537
-1.800707	2.276231	2.952186
-1.847805	2.260836	2.931142
-1.893965	2.243619	2.909440
-1.939111	2.224607	2.887114
-1.983172	2.203830	2.864200
-2.026078	2.181323	2.840734
-2.067759	2.157120	2.816755
-2.108149	2.131262	2.792300
-2.147184	2.103788	2.767409
-2.184800	2.074744	2.742120
-2.220938	2.044174	2.716475
-2.255541	2.012129	2.690516
-2.288552	1.978660	2.664282
-2.319918	1.943820	2.637817
-2.349590	1.907664	2.611162
-2.377520	1.870251	2.584361
-2.403664	1.831641	2.557457
-2.427979	1.791896	2.530492
-2.450428	1.751078	2.503509
-2.470973	1.709253	2.476551
-2.489583	1.666489	2.449662
-2.506226	1.622853	2.422885
-2.520877	1.578413	2.396261
-2.533509	1.533233	2.369835
-2.544104	1.487382	2.343644
-2.552642	1.440932	2.317732
-2.559109	1.393959	2.292139
-2.563496	1.346540	2.266907
-2.565797	1.298757	2.242075
-0.540010	0.247523	1.963341
-2.565542	1.244618	2.214744
-2.555847	1.178115	2.174544
-2.559716	1.084442	2.149289
-2.547327	1.018768	2.119445
-2.524765	0.967292	2.085519
-2.511194	0.888380	2.063459
-2.501362	0.833695	2.051625
-2.469816	0.806820	2.019807
-2.442291	0.745448	1.996813
-2.424176	0.687422	1.986740
-2.380183	0.631872	1.956341
-2.355239	0.591924	1.942873
-2.323447	0.545778	1.928115
-2.291402	0.502559	1.915140
-2.246699	0.448188	1.899992
-2.248974	0.361910	1.932220
-2.213646	0.324976	1.923646
-2.163303	0.275587	1.913133
-2.110737	0.227983	1.904162
-2.055080	0.182961	1.897576
-2.001122	0.155917	1.886056
-1.933085	0.097728	1.889064
-1.860656	0.066600	1.879790
-1.817878	0.031218	1.887020
-0.795584	0.156239	1.851192
-1.759512	0.002284	1.888812
-1.710439	-0.008347	1.884025
-1.657393	-0.030208	1.887867
-1.603569	-0.050017	1.892983
-0.862332	0.142512	1.827459
-1.549244	-0.067977	1.899286
-1.496935	-0.083075	1.906351
-1.444258	-0.096286	1.914471
-1.388615	-0.108008	1.924176
-1.332789	-0.117699	1.934961
-1.276872	-0.125342	1.946808
-1.221030	-0.130650	1.959819
-1.165288	-0.133891	1.973851
-1.112356	-0.134915	1.988220
-1.059688	-0.133964	2.003515
-1.007367	-0.131043	2.019712
-0.955472	-0.126156	2.036784
-0.904088	-0.119310	2.054704
-0.853295	-0.110518	2.073444
-0.803175	-0.099793	2.092973
-1.040806	0.133477	1.764739
-0.753809	-0.087152	2.113260
-0.705276	-0.072615	2.134273
-0.657652	-0.056206	2.155978
-0.611014	-0.037951	2.178340
-0.565438	-0.017879	2.201325
-0.520995	0.003978	2.224893
-0.477756	0.027584	2.249010
-0.435792	0.052903	2.273634
-0.395169	0.079893	2.298728
-0.355952	0.108512	2.324250
-0.318204	0.138713	2.350161
-0.281985	0.170448	2.376419
-0.247353	0.203667	2.402981
-0.214364	0.238316	2.429805
-0.183071	0.274340	2.456849
-0.153523	0.311681	2.484069
-0.125767	0.350280	2.511421
-0.099849	0.390075	2.538862
-0.075809	0.431002	2.566347
-0.053686	0.472995	2.593834
-0.033516	0.515988	2.621278
-0.015330	0.559912	2.648634
0.000841	0.604696	2.675860
0.014974	0.650269	2.702912
0.027044	0.696558	2.729746
0.037032	0.743488	2.756319
0.044923	0.790986	2.782589
0.050703	0.838974	2.808514
0.054347	0.894800	2.837807
0.057700	0.956358	2.883165
0.052348	1.034302	2.907883
0.046145	1.093533	2.936130
0.038433	1.153985	2.977815
0.027116	1.209580	3.002782
0.010804	1.270886	3.029237
-0.009647	1.334799	3.055847
-1.488825	0.205764	1.681059
-0.033043	1.396133	3.067079
-0.057133	1.453203	3.089202
-0.080635	1.502504	3.107554
-0.107763	1.553253	3.125621
-0.138360	1.605385	3.143411
-0.165375	1.647210	3.170235
-0.206180	1.704260	3.187644
-0.255813	1.767590	3.205751
-0.306445	1.826251	3.221212
-0.339425	1.860828	3.229444
-0.393147	1.912767	3.240633
-0.452427	1.964392	3.250099
-0.521562	2.020690	3.245913
-0.572211	2.055971	3.262775
-0.632605	2.095256	3.265678
-0.701050	2.136275	3.253952
-0.767979	2.170131	3.265513
-0.830117	2.199589	3.262950
-0.868344	2.215715	3.260363
-0.928948	2.239163	3.255188
-0.987405	2.258708	3.248642
-1.056165	2.278668	3.239407
-1.125455	2.295790	3.228587
-1.173768	2.306182	3.207015
-1.252023	2.317558	3.204006
-1.775119	0.336623	1.674098
-1.325309	2.325351	3.187338
-1.386230	2.329105	3.158859
-1.461656	2.329693	3.151184
-1.524374	2.327819	3.132593
-1.576652	2.323678	3.115791
-1.836167	0.373627	1.678983
-1.628451	2.317568	3.098125
-1.679688	2.309498	3.079626
-1.730280	2.299481	3.060323
-1.780147	2.287534	3.040246
-1.829209	2.273675	3.019428
-1.877387	2.257927	2.997901
-1.924605	2.240315	2.975702
-1.970787	2.220867	2.952864
-2.015858	2.199615	2.929424
-2.059747	2.176591	2.905421
-2.102384	2.151834	2.880891
-2.143701	2.125382	2.855876
-2.183630	2.097278	2.830414
-1.978270	0.487878	1.693190
-2.222110	2.067567	2.804546
-2.259077	2.036297	2.778313
-2.294472	2.003517	2.751758
-2.328239	1.969280	2.724923
-2.360325	1.933642	2.697851
-2.390678	1.896657	2.670586
-2.419249	1.858387	2.643171
-2.445992	1.818892	2.615649
-2.470864	1.778235	2.588065
-2.493827	1.736481	2.560464
-2.514843	1.693697	2.532889
-2.533879	1.649952	2.505383
-2.550904	1.605316	2.477992
-2.565891	1.559859	2.450758
-2.578816	1.513655	2.423727
-2.589657	1.466774	2.396940
-2.084083	0.654292	1.691192
-2.598397	1.419289	2.370441
-2.605020	1.371269	2.344268
-2.609516	1.322793	2.318466
-2.611876	1.273935	2.293074
-2.611892	1.221663	2.266612
-2.607723	1.150712	2.231871
-2.599209	1.076516	2.196702
-2.582491	1.027185	2.163071
-2.156208	0.735941	1.723723
-2.567889	0.963434	2.134796
-2.555630	0.885785	2.112236
-2.531468	0.841777	2.083419
-2.512254	0.808271	2.062962
-2.458045	0.687608	2.018078
-2.449525	0.638776	2.017785
-2.400533	0.575713	1.985796
-2.367250	0.507535	1.973557
-2.329672	0.457099	1.958243
-2.293761	0.412861	1.945611
-0.896562	1.176342	0.707247
-0.226490	1.412802	1.018799
-0.190357	1.462667	1.065488
-2.236732	0.879927	1.764047
-0.144380	1.560511	1.138276
-0.131454	1.605852	1.154307
-0.117566	1.662486	1.181533
-0.106790	1.787669	1.240734
-0.119845	1.891491	1.296521
-0.138340	1.951258	1.337103
-0.151951	1.995318	1.356117
-2.277954	0.949732	1.797940
-0.223162	2.142889	1.401262
-0.246267	2.178291	1.412690
-0.369363	2.316361	1.450340
-0.411905	2.350283	1.462933
-0.547018	2.443163	1.461237
-0.607636	2.468085	1.467328
-0.713939	2.514958	1.439780
-0.781941	2.526153	1.440805
-0.842034	2.538815	1.424285
-1.085956	2.534719	1.345145
-1.144477	2.518962	1.335569
-1.199233	2.501868	1.319521
-1.344496	2.426559	1.213297
-1.432181	2.356075	1.176603
-1.476789	2.306737	1.129482
-1.509246	2.266693	1.105355
-1.223539	1.274319	0.701479
-1.025200	1.174697	0.719937
-0.843366	1.151235	0.745058
-0.485154	1.193759	0.881252
-0.387244	1.246358	0.931015
-0.314346	1.299153	0.980013
-0.264852	1.347814	1.020279
-0.167455	1.493530	1.127126
-0.116306	1.675825	1.223914
-0.110995	1.727463	1.255960
-0.184911	2.054663	1.402335
-2.355240	1.260170	1.917360
-0.278191	2.207750	1.457844
-0.324301	2.262176	1.457690
-0.451850	2.374165	1.482908
-0.666768	2.486912	1.475762
-0.892026	2.533695	1.444506
-0.973267	2.534979	1.431632
-1.040025	2.530347	1.409539
-1.262552	2.470757	1.314508
-1.319340	2.438536	1.275757
-1.384295	2.394930	1.239407
-1.596389	1.730571	0.857427
-1.562829	1.665820	0.809546
-0.828517	1.130012	0.772458
-0.218810	1.395761	1.086628
-2.375343	1.429835	2.021484
-0.150173	1.533612	1.173983
-0.131830	1.602345	1.213175
-0.113120	1.757673	1.301507
-0.118504	1.832386	1.337096
-0.137440	1.915814	1.364033
-2.362729	1.497410	2.043278
-0.159633	1.989860	1.395161
-0.225224	2.115973	1.453515
-0.254084	2.160048	1.474518
-0.367952	2.289910	1.497040
-0.421499	2.336731	1.501281
-0.567538	2.428895	1.515748
-0.627693	2.462545	1.503447
-2.350405	1.572688	2.082111
-0.745195	2.499063	1.504115
-0.848735	2.520913	1.481649
-1.105016	2.515223	1.408754
-1.377537	2.399948	1.275160
-1.603547	2.092589	1.033828
-2.330532	1.639142	2.110882
-1.628681	1.850181	0.918675
-1.318649	1.281121	0.759246
-0.878326	1.109334	0.790434
-0.763904	1.104249	0.816527
-0.550176	1.143149	0.895658
-2.314843	1.703778	2.159420
-0.484936	1.171286	0.923612
-0.421013	1.195839	0.970501
-0.356208	1.241346	1.002674
-0.305680	1.281204	1.036181
-0.257531	1.329172	1.078171
-0.186654	1.444093	1.134966
-2.287690	1.772683	2.201069
-0.161673	1.489484	1.177677
-0.140594	1.551629	1.213429
-0.123844	1.612761	1.260182
-0.117768	1.658687	1.284025
-0.145551	1.933968	1.413153
-0.192258	2.047206	1.462696
-0.309415	2.224262	1.509552
-0.400182	2.311444	1.528754
-0.446779	2.347157	1.536641
-0.489026	2.375631	1.540487
-0.595917	2.438862	1.531505
-0.925853	2.520568	1.492065
-0.996368	2.523522	1.467798
-1.035450	2.521994	1.451192
-1.188966	2.494848	1.391011
-1.235768	2.478923	1.366737
-1.293439	2.451283	1.352052
-1.420887	2.368824	1.254941
-2.197255	1.942467	2.333327
-1.459284	2.340358	1.233333
-1.566624	2.202016	1.143877
-1.588505	2.159489	1.116974
-1.644648	1.963515	1.008447
-1.631590	1.780327	0.918647
-1.588820	1.667049	0.850198
-1.512206	1.491597	0.802377
-1.483402	1.440481	0.797366
-0.610544	1.103341	0.896241
-0.514825	1.135380	0.936242
-0.452366	1.156724	0.976357
-0.390242	1.195980	1.008081
-0.235242	1.334021	1.123388
-2.095512	2.054409	2.399555
-0.207143	1.372013	1.159579
-0.174552	1.443803	1.181869
-0.149805	1.495494	1.233037
-0.129176	1.560350	1.276663
-0.111599	1.693885	1.335859
-2.050245	2.096732	2.437995
-0.112963	1.756343	1.375419
-0.123197	1.835668	1.408302
-0.169570	1.988999	1.478214
-0.220094	2.091102	1.503765
-0.246334	2.138052	1.515819
-0.352877	2.255516	1.561607
-0.550148	2.404074	1.587955
-0.675372	2.463691	1.559457
-0.753493	2.490007	1.553779
-0.814265	2.502750	1.550271
-1.954639	2.171807	2.511488
-0.894717	2.514279	1.525381
-0.958587	2.516469	1.518969
-1.098213	2.510685	1.474972
-1.143974	2.501319	1.461286
-1.288594	2.453645	1.384851
-1.346508	2.421613	1.357599
-1.410730	2.381699	1.322439
-1.572213	2.215227	1.190168
-1.316742	1.234602	0.792448
-1.113733	1.113800	0.804734
-1.843083	2.235195	2.566738
-1.058035	1.088005	0.820277
-0.984174	1.067204	0.832039
-0.887342	1.068557	0.833843
-0.800796	1.063931	0.853364
-0.658685	1.057581	0.920987
-0.585923	1.078056	0.949715
-0.413473	1.150885	1.035170
-0.356632	1.195335	1.063673
-0.305832	1.230209	1.104371
-0.249951	1.290563	1.148815
-0.158871	1.438354	1.253729
-1.732652	2.283677	2.631753
-0.135968	1.509241	1.285552
-0.121489	1.573581	1.313197
-0.112756	1.624170	1.348092
-0.106959	1.684063	1.401646
-1.683944	2.299600	2.651792
-0.113050	1.770751	1.434399
-0.123878	1.839152	1.473412
-0.158743	1.952806	1.510091
-0.186750	2.016731	1.538752
-0.322730	2.214940	1.599946
-1.612941	2.319460	2.677236
-0.377583	2.266550	1.613891
-0.434114	2.316263	1.614701
-0.497286	2.366665	1.605992
-0.612523	2.425748	1.625839
-0.718166	2.464546	1.625179
-0.781851	2.484797	1.604990
-0.943917	2.510038	1.565016
-1.017624	2.511631	1.543895
-1.187843	2.485767	1.494681
-1.256455	2.464354	1.450129
-1.335060	2.430826	1.424454
-1.389526	2.401655	1.406655
-1.450783	2.345160	2.740700
-1.610039	2.147858	1.167966
-1.643696	2.085887	1.149919
-1.665146	2.007653	1.101209
-1.677643	1.941200	1.065121
-1.669776	1.747967	0.968951
-1.609878	1.543877	0.895292
-1.504821	1.395388	0.837911
-1.396769	2.347511	2.776879
-1.040260	1.069481	0.835024
-0.626360	1.047012	0.955582
-0.386158	1.146550	1.076200
-0.329591	1.190677	1.109358
-1.326984	2.349144	2.797641
-0.279857	1.236281	1.150634
-0.226664	1.302410	1.193982
-0.187261	1.362312	1.235567
-0.141363	1.455015	1.303476
-0.125689	1.507331	1.328382
-0.105252	1.651124	1.405281
-0.106355	1.711034	1.435036
-0.116081	1.799023	1.469871
-0.130109	1.861739	1.516917
-0.176766	1.990365	1.556942
-0.206711	2.047044	1.581793
-0.258591	2.132128	1.603639
-0.296358	2.178778	1.622244
-0.336814	2.221860	1.629143
-0.666383	2.443604	1.647176
-0.839194	2.491935	1.630157
-0.895481	2.501451	1.608313
-0.980820	2.508600	1.584383
-1.111614	2.501967	1.547881
-1.165786	2.491452	1.528700
-1.240403	2.470614	1.517663
-1.314211	2.443140	1.472933
-1.374744	2.411535	1.432990
-1.032515	2.315568	2.841010
-1.432724	2.376172	1.409240
-1.483768	2.337670	1.361633
-1.539403	2.288161	1.329420
-1.677856	2.040244	1.158801
-1.491000	1.282938	0.881143
-1.197682	1.076907	0.859627
-1.119923	1.054930	0.863548
-0.938313	2.291904	2.849280
-1.077404	1.032550	0.874604
-1.013842	1.020410	0.878302
-0.974379	1.010020	0.884787
-0.743804	0.993272	0.944878
-0.701089	1.007526	0.953757
-0.663012	1.009839	0.972040
-0.606054	1.022370	0.994438
-0.567394	1.036691	1.006259
-0.525723	1.040084	1.035381
-0.481452	1.058595	1.057238
-0.441118	1.089599	1.068624
-0.413222	1.104278	1.084424
-0.327221	1.175279	1.133155
-0.299980	1.188131	1.165976
-0.262694	1.226262	1.195765
-0.750225	2.221030	2.849938
-0.238754	1.256929	1.211551
-0.208901	1.290617	1.246135
-0.192885	1.315270	1.263123
-0.165198	1.369957	1.295909
-0.154448	1.393742	1.305293
-0.122025	1.483582	1.359904
-0.111477	1.520551	1.393810
-0.102752	1.574930	1.423800
-0.100921	1.628279	1.435903
-0.099299	1.665117	1.463902
-0.104803	1.745468	1.503040
-0.632423	2.155553	2.859423
-0.116268	1.812904	1.533961
-0.126415	1.853931	1.558418
-0.145703	1.912597	1.568818
-0.178294	1.987631	1.604989
-0.199166	2.028300	1.619710
-0.232869	2.082448	1.648759
-0.268267	2.132274	1.664032
-0.301183	2.174942	1.660039
-0.330579	2.207040	1.673252
-0.364733	2.238833	1.692083
-0.415188	2.285325	1.691055
-0.452911	2.313586	1.700430
-0.527106	2.367708	1.696582
-0.583036	2.399293	1.696843
-0.635794	2.423318	1.695541
-0.698697	2.446658	1.697574
-0.724695	2.456686	1.687879
-0.803133	2.478747	1.676985
-0.866777	2.490808	1.670418
-0.889988	2.494586	1.665801
-0.957916	2.502175	1.638887
-1.036427	2.504188	1.623793
-1.088076	2.502915	1.614430
-1.190277	2.485109	1.561375
-1.225681	2.475522	1.557423
-0.377890	1.958732	2.836772
-1.272787	2.462154	1.531738
-1.362452	2.424533	1.487492
-1.390978	2.406520	1.463213
-1.433126	2.383067	1.452303
-1.478780	2.352632	1.435106
-0.329586	1.906041	2.841983
-1.505472	2.330516	1.407975
-1.538455	2.300093	1.383246
-1.568988	2.269166	1.357612
-1.597275	2.234555	1.332102
-1.623847	2.198524	1.305021
-1.643116	2.171303	1.288555
-1.680837	2.075233	1.211743
-1.725369	1.891267	1.119302
-1.731094	1.847295	1.104589
-1.727247	1.769176	1.066159
-1.712402	1.720775	1.029311
-0.230706	1.789369	2.794458
-1.661636	1.548944	0.957419
-1.531956	1.340070	0.888399
-1.535852	1.268466	0.923120
-1.500109	1.225846	0.914744
-1.196123	1.031465	0.895195
-1.146876	1.016029	0.896503
-1.100793	0.993698	0.906171
-1.032161	0.981392	0.911092
-0.181218	1.716658	2.769164
-0.993625	0.962765	0.925645
-0.774331	0.950491	0.978117
-0.712722	0.962336	0.994277
-0.664275	0.969855	1.011848
-0.625138	0.971792	1.033958
-0.571736	0.992290	1.051889
-0.526427	1.008863	1.070347
-0.483188	1.027099	1.091745
-0.448014	1.038157	1.117373
-0.405309	1.065675	1.135181
-0.327585	1.114618	1.192923
-0.294000	1.154354	1.209440
-0.261790	1.187350	1.232529
-0.236486	1.210263	1.261605
-0.209281	1.245981	1.287329
-0.181740	1.294752	1.309404
-0.162083	1.323297	1.337382
-0.143324	1.356831	1.361983
-0.110302	1.451159	1.421706
-0.103485	1.490681	1.443368
-0.096590	1.545763	1.465798
-0.091736	1.593054	1.488439
-0.089289	1.630392	1.515628
-0.089423	1.673869	1.545316
-0.097243	1.742853	1.567285
-0.048882	1.426856	2.663954
-0.108316	1.791245	1.584131
-0.123562	1.845911	1.610193
-0.144961	1.907357	1.635288
-0.172990	1.973953	1.666049
-0.199435	2.023768	1.676240
-0.233058	2.076149	1.703377
-0.261711	2.117896	1.706384
-0.305311	2.172639	1.713559
-0.337307	2.205886	1.729674
-0.372135	2.240040	1.727275
-0.023007	1.322495	2.619648
-0.418082	2.279900	1.734534
-0.467560	2.315105	1.751011
-0.540755	2.363348	1.767486
-0.583769	2.389870	1.750840
-0.010299	1.241610	2.581669
-0.640265	2.416078	1.750889
-0.706131	2.443449	1.736324
-0.761451	2.459494	1.741455
-0.863639	2.485820	1.720700
-0.932909	2.494805	1.708435
-1.011599	2.498470	1.698801
-1.069459	2.498038	1.682306
-0.005566	1.182216	2.548086
-1.102464	2.497295	1.666970
-1.212167	2.480416	1.627564
-1.251328	2.469173	1.608555
-1.291521	2.458425	1.594107
-1.390466	2.417234	1.545447
-0.003345	1.116325	2.510959
-1.423686	2.398303	1.521552
-1.462771	2.374112	1.498333
-1.500376	2.346560	1.476492
-1.535430	2.317846	1.452076
-1.568305	2.286983	1.427180
-1.598901	2.254053	1.401898
-1.627057	2.219222	1.376309
-1.652252	2.183658	1.348552
-1.673989	2.152840	1.325768
-1.718788	2.065624	1.274666
-1.757386	1.880650	1.166954
-1.766023	1.852852	1.163945
-1.756407	1.803303	1.126105
-1.760791	1.722260	1.101979
-1.746160	1.683321	1.070313
-1.708434	1.522832	1.012226
-1.637581	1.385247	0.961073
-1.558499	1.298861	0.926431
-1.334673	1.011927	0.954795
-1.243149	0.982649	0.943621
-0.963100	0.902925	0.977733
-0.784165	0.912088	1.011591
-0.743958	0.907407	1.031326
-0.647382	0.922602	1.066358
-0.594571	0.934957	1.091054
-0.547090	0.951304	1.109076
-0.458263	0.989513	1.153375
-0.418797	1.027129	1.160130
-0.330002	1.062493	1.241003
-0.306947	1.092201	1.247783
-0.208820	1.199929	1.326326
-0.093782	1.440384	1.500707
-0.089320	1.488240	1.513050
-0.086038	1.549579	1.518084
-0.082959	1.646376	1.563691
-0.107987	1.805666	1.664970
-0.087433	0.732139	2.293083
-0.126368	1.860552	1.691153
-0.153304	1.930310	1.691950
-0.209416	2.036560	1.729966
-0.237231	2.077101	1.766058
-0.366333	2.224163	1.804209
-0.115481	0.668800	2.263205
-0.433538	2.281271	1.795108
-0.492361	2.324545	1.819589
-0.662586	2.415485	1.832473
-0.733648	2.444007	1.793093
-0.798556	2.462593	1.818080
-0.992811	2.496433	1.742465
-1.051278	2.496058	1.730101
-1.101640	2.493988	1.714886
-1.149342	2.488753	1.712435
-1.210575	2.479108	1.690327
-1.257829	2.469802	1.681379
-1.305184	2.456335	1.661239
-1.340415	2.442432	1.635232
-0.198262	0.549188	2.169269
-1.395590	2.419215	1.607987
-1.435577	2.402637	1.593851
-1.520501	2.349363	1.543081
-1.562810	2.320057	1.536117
-1.586907	2.293654	1.499839
-1.623472	2.256833	1.470947
-0.238953	0.484394	2.151241
-1.640652	2.226060	1.427864
-1.678986	2.188259	1.417058
-1.757264	2.055846	1.338510
-1.781505	1.975024	1.290081
-0.288457	0.444330	2.096409
-1.807472	1.904257	1.269619
-1.785337	1.868921	1.204882
-1.783526	1.752082	1.142996
-1.801163	1.690509	1.144926
-1.768141	1.616372	1.086116
-0.328128	0.409502	2.068114
-1.750720	1.503844	1.060966
-1.551935	1.061267	1.034654
-1.500681	1.040241	1.016873
-1.227130	0.859671	1.033494
-1.185419	0.845215	1.037873
-0.380697	0.363764	2.036089
-0.989158	0.805968	1.063949
-0.941252	0.797998	1.079548
-0.870629	0.787657	1.105526
-0.790359	0.796627	1.122303
-0.720028	0.821068	1.130078
-0.442062	0.324941	1.992999
-0.644762	0.812409	1.179587
-0.397284	0.925526	1.291872
-0.348479	0.961563	1.322833
-0.291519	0.995867	1.376658
-0.251955	1.040378	1.400112
-0.137023	1.210494	1.509339
-0.117775	1.251908	1.535723
-0.066467	1.434114	1.651660
-0.065959	1.502833	1.671534
-0.061099	1.548053	1.718650
-0.066495	1.615202	1.717901
-0.079670	1.716911	1.783356
-0.132300	1.869598	1.853652
-0.562489	0.257733	1.928745
-0.170578	1.943045	1.865009
-0.200099	1.995716	1.913710
-0.298527	2.131478	1.914051
-0.336124	2.171606	1.923794
-0.622513	0.236319	1.894819
-0.429237	2.258645	1.931294
-0.533447	2.327840	1.965061
-0.724788	2.418879	1.965125
-0.794126	2.441432	1.954028
-0.848793	2.458487	1.941057
-0.689830	0.202829	1.875639
-0.977439	2.480681	1.899903
-1.045883	2.482421	1.891913
-1.115815	2.482576	1.895172
-1.165312	2.479957	1.857071
-1.218032	2.473738	1.839092
-0.748210	0.195928	1.840303
-1.264470	2.468241	1.812863
-1.402397	2.427771	1.753573
-1.454813	2.407870	1.754199
-1.568617	2.345244	1.682689
-1.676512	2.246315	1.579457
-1.726518	2.195216	1.560090
-1.765565	2.145006	1.530942
-1.792772	2.088035	1.482394
-1.828750	2.027639	1.453767
-1.854827	1.974400	1.432571
-1.866339	1.909159	1.382625
-1.877270	1.848431	1.348188
-1.896305	1.782800	1.334049
-1.889312	1.739810	1.300083
-1.893124	1.667932	1.270983
-0.917982	0.158402	1.784751
-1.837945	1.533727	1.167260
-1.811602	1.406420	1.138360
-1.734644	1.265437	1.088605
-1.642921	1.044240	1.109514
-0.997587	0.154921	1.758144
-1.555361	0.942123	1.109300
-1.523620	0.905400	1.115937
-1.299126	0.798197	1.100021
-1.210562	0.751795	1.119145
-1.086936	0.754182	1.108311
-0.829895	0.715074	1.189466
-0.773272	0.716319	1.213122
-0.702404	0.741424	1.222352
-0.509854	0.779954	1.327469
-0.462177	0.812050	1.342106
-0.318203	0.906686	1.430372
-0.278347	0.944092	1.459776
-0.234132	0.990177	1.495548
-0.187737	1.040099	1.546766
-0.152634	1.093975	1.583921
-0.120667	1.153991	1.623303
-0.101812	1.203326	1.641447
-0.053733	1.386255	1.757661
-0.049407	1.440373	1.786280
-0.052976	1.548827	1.813723
-1.244571	0.180018	1.685794
-0.055288	1.581909	1.865234
-0.070215	1.664134	1.870240
-0.081917	1.712020	1.891196
-0.107496	1.790685	1.944413
-0.130267	1.845376	1.965701
-0.161050	1.908889	1.992112
-0.290603	2.093751	2.049278
-1.319253	0.189235	1.677279
-0.329355	2.131673	2.066519
-0.376480	2.180581	2.054538
-0.422560	2.217430	2.083724
-0.469818	2.261498	2.057335
-1.400980	0.213639	1.660956
-0.560546	2.320708	2.079326
-0.676905	2.376514	2.092523
-0.834196	2.436813	2.061143
-0.968998	2.461522	2.044676
-1.022669	2.465842	2.040707
-1.107499	2.473201	1.988140
-1.161261	2.472256	1.972538
-1.253760	2.461333	1.973419
-1.294564	2.454906	1.958687
-1.360000	2.441571	1.921678
-1.403578	2.428932	1.903020
-1.473962	2.401776	1.848890
-1.507648	2.387906	1.823451
-1.640968	2.306584	1.744770
-1.673728	2.279958	1.731056
-1.739945	2.226593	1.717873
-1.772971	2.196434	1.700368
-1.591279	0.283603	1.642429
-1.835981	2.089914	1.586301
-1.857612	2.050655	1.560429
-1.921229	1.872066	1.451491
-1.943919	1.818176	1.444212
-1.949758	1.690976	1.369247
-1.653752	0.317515	1.636984
-1.908870	1.450666	1.257460
-1.891677	1.399690	1.236523
-1.844706	1.290419	1.195759
-1.707017	1.067285	1.146022
-1.687488	0.930040	1.204347
-1.725078	0.351855	1.641439
-1.633858	0.895767	1.187590
-1.478279	0.786303	1.175681
-1.351086	0.722097	1.178673
-1.147850	0.667931	1.193341
-1.086653	0.631538	1.228358
-1.788911	0.388818	1.644935
-1.046735	0.625273	1.236603
-0.970019	0.639382	1.232937
-0.906991	0.633133	1.251469
-0.754577	0.639488	1.304868
-0.687547	0.664320	1.318848
-1.851160	0.430804	1.649728
-0.623261	0.682185	1.341743
-0.445306	0.739752	1.448854
-0.407736	0.759228	1.475338
-0.350169	0.798600	1.511468
-0.286579	0.854373	1.551515
-0.213061	0.934881	1.606880
-0.150113	1.021592	1.674575
-0.111761	1.091230	1.726707
-0.089734	1.137761	1.765688
-0.072431	1.195247	1.790439
-0.057019	1.248500	1.823869
-0.041708	1.354144	1.867378
-0.043595	1.518804	1.950037
-1.986583	0.540913	1.670963
-0.049109	1.555539	1.975600
-0.068086	1.643133	2.027494
-0.084620	1.704824	2.041203
-0.104740	1.765417	2.057712
-0.172666	1.900925	2.117972
-0.188935	1.929269	2.105924
-2.032734	0.596005	1.676969
-0.228221	1.985308	2.145073
-0.339410	2.118283	2.170380
-0.366620	2.144619	2.176061
-2.034725	0.639717	1.656674
-0.463853	2.220788	2.213251
-0.512146	2.254942	2.216961
-0.630780	2.328184	2.209181
-0.681361	2.353101	2.207570
-0.780683	2.396527	2.187252
-0.905540	2.429212	2.183051
-0.974488	2.442152	2.168080
-1.058587	2.452672	2.145917
-2.112102	0.732547	1.683413
-1.099848	2.455398	2.135690
-1.173124	2.455772	2.106321
-1.246867	2.453311	2.073691
-1.301961	2.445541	2.073846
-1.346804	2.439568	2.042528
-1.456454	2.410075	2.003916
-1.502404	2.392668	2.003748
-2.173041	0.797066	1.719780
-1.554544	2.369792	1.977318
-1.608488	2.342893	1.948524
-1.649487	2.320755	1.938875
-1.690900	2.293777	1.913564
-1.730375	2.264551	1.887661
-1.760599	2.234467	1.837954
-1.789041	2.210627	1.823877
-1.851313	2.134037	1.745998
-1.894821	2.076870	1.720515
-1.911333	2.049981	1.702309
-1.950541	1.973101	1.652319
-1.969383	1.936160	1.634220
-1.995114	1.841034	1.570448
-2.006131	1.797403	1.551294
-2.013188	1.732288	1.510099
-2.023644	1.581324	1.450364
-2.016549	1.518765	1.420694
-1.981222	1.420684	1.354907
-1.963579	1.365596	1.332109
-1.896019	1.199719	1.274999
-1.814881	1.094234	1.228449
-1.802331	0.923058	1.299671
-1.748542	0.868581	1.287111
-1.695907	0.832239	1.271236
-1.641093	0.776347	1.272062
-1.545254	0.711873	1.265964
-1.495985	0.683448	1.265343
-2.297092	1.099721	1.812509
-1.373493	0.635620	1.261152
-1.319306	0.630008	1.252010
-1.210307	0.563385	1.296769
-1.149403	0.560107	1.297198
-1.045798	0.534369	1.328436
-0.977531	0.532630	1.342857
-0.910902	0.549963	1.340603
-0.757492	0.558739	1.395905
-0.712928	0.554842	1.428849
-2.324269	1.212338	1.860005
-0.634700	0.582424	1.452096
-0.596460	0.587261	1.477943
-0.537581	0.618659	1.493655
-0.460261	0.655927	1.534229
-0.403406	0.681117	1.579035
-0.357968	0.712609	1.607762
-0.312938	0.751480	1.634037
-0.186006	0.892962	1.731382
-0.153844	0.937025	1.769682
-0.126184	0.984510	1.801508
-0.101873	1.033810	1.833310
-0.081916	1.093880	1.849065
-0.042606	1.230322	1.942544
-0.036046	1.285772	1.967231
-0.031604	1.351197	2.001610
-0.031636	1.408743	2.042917
-0.036033	1.465444	2.067453
-0.042996	1.517000	2.091600
-0.052870	1.569599	2.132028
-0.089126	1.697240	2.160171
-0.101029	1.721939	2.191716
-0.119672	1.764932	2.208242
-0.142765	1.816379	2.205889
-0.181521	1.879362	2.248788
-2.347786	1.469877	1.997247
-0.205233	1.918219	2.252063
-0.254735	1.986678	2.274435
-0.340598	2.087520	2.287058
-0.378348	2.120021	2.305552
-0.411038	2.149090	2.311075
-0.471220	2.199770	2.312867
-0.555695	2.257759	2.318467
-0.640553	2.306324	2.313953
-0.713031	2.340894	2.316306
-0.814258	2.378356	2.318638
-0.928711	2.411091	2.299756
-0.988659	2.422914	2.287250
-1.057250	2.434202	2.261494
-2.325160	1.608598	2.066421
-1.102154	2.440543	2.235024
-1.173491	2.439898	2.240921
-1.245008	2.434505	2.244363
-1.314952	2.430515	2.209045
-1.352310	2.424722	2.204651
-1.384034	2.419895	2.184236
-1.444924	2.406054	2.150368
-1.499024	2.390723	2.124450
-1.540674	2.376460	2.108449
-1.598843	2.351824	2.079612
-1.626052	2.338312	2.052938
-1.695030	2.299583	2.013925
-2.284916	1.756147	2.166600
-1.745534	2.267125	1.995461
-1.787273	2.236377	1.977283
-1.829551	2.199793	1.946866
-1.869050	2.160665	1.915957
-1.905633	2.119099	1.884634
-2.262411	1.805102	2.193364
-1.941576	2.071428	1.850476
-1.954857	2.047980	1.825750
-1.990864	1.985740	1.784207
-2.000854	1.957674	1.754958
-2.035186	1.895342	1.735059
-2.052578	1.844099	1.704146
-2.061699	1.786149	1.656151
-2.076597	1.655475	1.578742
-2.070655	1.539703	1.515260
-2.067621	1.480039	1.493855
-2.054100	1.407167	1.460761
-2.052092	1.350739	1.454722
-2.196825	1.923683	2.278129
-2.035950	1.291031	1.433046
-1.974048	1.195002	1.368334
-1.942665	1.125980	1.350467
-1.918932	1.072502	1.342396
-1.879113	1.015457	1.324827
-2.146812	1.985196	2.313350
-1.851963	0.980576	1.314830
-1.852879	0.852960	1.381158
-1.773739	0.775194	1.364056
-1.718850	0.728032	1.356554
-1.596311	0.642833	1.346283
-1.555294	0.618507	1.345394
-1.429689	0.549477	1.355201
-2.109958	2.029380	2.348270
-1.391671	0.535795	1.357264
-1.311305	0.507727	1.365808
-1.227265	0.498642	1.363824
-1.170509	0.476747	1.381802
-1.015808	0.457904	1.415642
-2.053864	2.084295	2.385689
-0.967938	0.452398	1.434235
-0.925186	0.460623	1.438295
-0.851072	0.465457	1.461763
-0.784801	0.473053	1.484233
-0.732722	0.480661	1.505308
-2.011106	2.122678	2.423637
-0.702651	0.482430	1.523265
-0.630694	0.514648	1.539599
-0.586488	0.530209	1.559852
-0.531004	0.545945	1.594798
-1.961382	2.161818	2.458588
-0.479112	0.571288	1.622229
-0.425133	0.605307	1.647851
-0.344881	0.668108	1.689568
-0.293156	0.708441	1.732459
-0.254431	0.742803	1.765489
-0.189502	0.819413	1.822546
-0.156718	0.863697	1.860980
-0.128404	0.911231	1.893014
-0.102741	0.961794	1.925836
-0.080703	1.022277	1.951137
-1.862422	2.222557	2.508690
-0.065948	1.064202	1.976516
-0.049464	1.113769	2.017776
-0.037730	1.169885	2.049491
-0.030668	1.234641	2.072743
-0.027277	1.284652	2.099020
-0.026783	1.362973	2.150342
-1.798947	2.254470	2.541619
-0.033033	1.437010	2.186073
-0.043632	1.504101	2.218506
-0.073847	1.617692	2.267524
-0.094476	1.674580	2.289085
-0.118834	1.731292	2.310950
-0.153716	1.798537	2.335188
-0.192662	1.864205	2.357485
-0.233231	1.925866	2.370507
-0.319489	2.027740	2.408078
-0.434254	2.138697	2.416419
-0.494436	2.184082	2.423045
-0.555999	2.224071	2.437501
-0.625701	2.265410	2.438827
-0.685754	2.294763	2.446160
-0.712302	2.309759	2.438366
-1.626741	2.317696	2.621812
-0.921044	2.385592	2.409819
-0.995796	2.400227	2.402991
-1.063021	2.409202	2.397988
-1.118000	2.415081	2.385499
-1.187149	2.417938	2.376035
-1.255057	2.420248	2.340200
-1.299548	2.418983	2.320257
-1.456297	2.396571	2.234442
-1.495899	2.384844	2.226867
-1.560636	2.364409	2.198309
-1.508006	2.341844	2.672233
-1.624598	2.338880	2.183524
-1.673507	2.315824	2.178977
-1.720618	2.289966	2.143270
-1.772334	2.258666	2.122236
-1.811192	2.230709	2.087788
-1.856082	2.194426	2.056789
-1.898194	2.155427	2.025194
-1.424538	2.351382	2.710847
-1.937377	2.113849	1.993119
-1.973493	2.069894	1.960759
-2.006418	2.023739	1.928254
-2.031110	1.976811	1.886205
-2.051787	1.937601	1.860531
-2.079662	1.881496	1.828897
-2.103813	1.796583	1.766340
-2.122604	1.727529	1.734143
-2.133958	1.672642	1.707982
-2.144419	1.572160	1.662517
-2.141725	1.512552	1.631514
-2.144660	1.458008	1.616143
-1.255762	2.353205	2.759792
-2.123825	1.366220	1.564008
-2.104340	1.305407	1.530262
-2.064253	1.177626	1.485193
-2.036318	1.120835	1.463228
-2.009906	1.059022	1.449061
-1.975886	1.013519	1.426378
-1.184586	2.348750	2.765265
-1.937300	0.956863	1.408736
-1.894103	0.901840	1.392997
-1.875934	0.761782	1.452983
-1.825462	0.720856	1.438638
-1.780013	0.671921	1.437751
-1.736409	0.648859	1.424770
-1.103114	2.335600	2.796957
-1.701317	0.617252	1.425871
-1.655463	0.581860	1.426717
-1.599320	0.556459	1.418082
-1.542935	0.514809	1.427724
-1.486779	0.501654	1.416846
-1.376513	0.444330	1.437983
-1.268036	0.416878	1.448361
-1.205381	0.402136	1.461617
-1.121775	0.379728	1.488169
-0.968887	0.378224	1.517983
-0.921082	0.370768	1.542908
-0.956262	2.304559	2.807472
-0.847358	0.383139	1.560234
-0.794981	0.393476	1.574304
-0.628986	0.435080	1.641761
-0.595251	0.452120	1.651408
-0.487520	0.500350	1.706139
-0.432810	0.523770	1.748095
-0.381535	0.563822	1.770941
-0.328826	0.598990	1.815433
-0.304670	0.627568	1.821991
-0.221783	0.707780	1.894396
-0.837627	2.263721	2.825756
-0.186398	0.765051	1.908590
-0.129434	0.840715	1.987688
-0.102432	0.894832	2.021336
-0.079777	0.948510	2.054889
-0.785084	2.241008	2.832206
-0.065300	0.983743	2.084385
-0.046800	1.051436	2.112007
-0.034873	1.106276	2.143131
-0.025613	1.166220	2.187947
-0.021969	1.220310	2.197379
-0.026935	1.377078	2.268340
-0.035343	1.425097	2.323728
-0.046000	1.483187	2.335128
-0.059975	1.538884	2.361116
-0.685690	2.193144	2.826451
-0.109066	1.673844	2.416942
-0.157209	1.771044	2.446334
-0.189019	1.819841	2.472948
-0.229267	1.880408	2.484712
-0.284075	1.952185	2.501364
-0.325032	1.996278	2.520288
-0.376511	2.050394	2.526097
-0.452355	2.111726	2.553184
-0.584414	2.132980	2.824019
-0.503590	2.158227	2.533124
-0.564742	2.196466	2.550384
-0.640491	2.241971	2.552118
