-25.250999	-75.358002	-145.078003
-25.177999	-75.328003	-145.298004
-25.021000	-75.264000	-145.345001
-24.848000	-75.193001	-145.470993
-24.750000	-75.153000	-145.576004
-24.653999	-75.113998	-145.681000
-24.452000	-75.030998	-145.774002
-24.304001	-74.971001	-145.929993
-24.284000	-74.961998	-146.119995
-24.172001	-74.916000	-146.324997
-24.090000	-74.883003	-146.434998
-23.801001	-74.764999	-146.427002
-23.631001	-74.695000	-146.565002
-23.573000	-74.670998	-146.701996
-23.524000	-74.651001	-146.985001
-23.340000	-74.575996	-147.095993
-23.267000	-74.545998	-147.210999
-23.037001	-74.452003	-147.276993
-22.847000	-74.374001	-147.266006
-22.711000	-74.318001	-147.440002
-22.537001	-74.247002	-147.432007
-22.441000	-74.208000	-147.667007
-22.264999	-74.136002	-147.804001
-22.150000	-74.088997	-148.011993
-21.997999	-74.027000	-148.175995
-21.884001	-73.980003	-148.223007
-21.660000	-73.888000	-148.285004
-21.478001	-73.814003	-148.283997
-21.360001	-73.764999	-148.481995
-21.266001	-73.726997	-148.578003
-21.146999	-73.678001	-148.783997
-20.924000	-73.586998	-148.860992
-20.704000	-73.497002	-148.940994
-20.518999	-73.420998	-149.074005
-20.450001	-73.392998	-149.179993
-20.207001	-73.293999	-149.225006
-19.979000	-73.199997	-149.292007
-19.790001	-73.123001	-149.414001
-19.635000	-73.058998	-149.417007
-19.465000	-72.989998	-149.565002
-19.146000	-72.859001	-149.507004
-19.007999	-72.803001	-149.705002
-18.784000	-72.710999	-149.783997
-18.591000	-72.632004	-149.906006
-18.358000	-72.537003	-149.968994
-18.139999	-72.447998	-150.061996
-17.868999	-72.336998	-150.070007
-17.625000	-72.237000	-150.119003
-17.423000	-72.153999	-150.227997
-17.254999	-72.084999	-150.182007
-17.018999	-71.988998	-150.244003
-16.794001	-71.897003	-150.320007
-16.649000	-71.836998	-150.298996
-16.419001	-71.744003	-150.363007
-16.295000	-71.693001	-150.375000
-15.967000	-71.558998	-150.311005
-15.779000	-71.481003	-150.449997
-15.659000	-71.431999	-150.468994
-15.416000	-71.333000	-150.518997
-15.297000	-71.283997	-150.570999
-15.005000	-71.165001	-150.544998
-14.735000	-71.054001	-150.548004
-14.594000	-70.997002	-150.580994
-14.317000	-70.883003	-150.563995
-14.028000	-70.764999	-150.539993
-13.755000	-70.653999	-150.533997
-13.613000	-70.595001	-150.565994
-13.359000	-70.491997	-150.597000
-13.156000	-70.408997	-150.528000
-12.841000	-70.278999	-150.440994
-12.533000	-70.153999	-150.373993
-12.292000	-70.055000	-150.427994
-12.060000	-69.959999	-150.302002
-11.769000	-69.841003	-150.244995
-11.613000	-69.777000	-150.317001
-11.402000	-69.691002	-150.270004
-11.097000	-69.566002	-150.145004
-10.882000	-69.477997	-150.078003
-10.674000	-69.392998	-149.992004
-10.421000	-69.290001	-150.001007
-10.216000	-69.206001	-149.927002
-9.866000	-69.063004	-149.770004
-9.584000	-68.946999	-149.753998
-9.314000	-68.836998	-149.751007
-9.071000	-68.737000	-149.598999
-8.813000	-68.632004	-149.582993
-8.585000	-68.539001	-149.440994
-8.347000	-68.441002	-149.315994
-8.111000	-68.345001	-149.225006
-7.885000	-68.251999	-149.186005
-7.636000	-68.151001	-149.039001
-7.341000	-68.029999	-148.854996
-7.095000	-67.929001	-148.753006
-6.850000	-67.829002	-148.606995
-6.602000	-67.727997	-148.475006
-6.342000	-67.622002	-148.287994
-6.053000	-67.502998	-148.138000
-5.843000	-67.417999	-148.011002
-2.010000	-67.727997	-112.793999
-2.242000	-67.821999	-112.706001
-2.870000	-68.077003	-112.356003
-3.234000	-68.223999	-112.181000
-3.451000	-68.311996	-112.133003
-3.788000	-68.446999	-112.032997
-3.997000	-68.531998	-112.001999
-4.355000	-68.677002	-111.851997
-4.576000	-68.765999	-111.774002
-4.890000	-68.891998	-111.740997
-5.267000	-69.044998	-111.559998
-5.454000	-69.120003	-111.545998
-5.844000	-69.278000	-111.339996
-6.153000	-69.402000	-111.324997
-6.304000	-69.462997	-111.374001
-6.658000	-69.606003	-111.259003
-6.962000	-69.727997	-111.251999
-7.271000	-69.851997	-111.235001
-7.630000	-69.997002	-111.115997
-7.784000	-70.058998	-111.138000
-8.086000	-70.181000	-111.134003
-8.375000	-70.295998	-111.158997
-8.644000	-70.403999	-111.223000
-8.947000	-70.526001	-111.219002
-9.228000	-70.638000	-111.260002
-9.526000	-70.758003	-111.264999
-9.821000	-70.876999	-111.277000
-10.135000	-71.002998	-111.251999
-10.431000	-71.122002	-111.260002
-10.708000	-71.233002	-111.305000
-10.983000	-71.343002	-111.353996
-11.254000	-71.452003	-111.411003
-11.533000	-71.563004	-111.453003
-11.795000	-71.667999	-111.526001
-12.071000	-71.778999	-111.571999
-12.349000	-71.889999	-111.613998
-12.623000	-72.000000	-111.661003
-12.848000	-72.089996	-111.796997
-13.144000	-72.209000	-111.804001
-13.265000	-72.257004	-111.880997
-13.506000	-72.352997	-111.989998
-13.774000	-72.459999	-112.046997
-13.990000	-72.545998	-112.195000
-14.297000	-72.668999	-112.183998
-14.439000	-72.725998	-112.223000
-14.697000	-72.829002	-112.303001
-14.871000	-72.898003	-112.524002
-15.123000	-72.998001	-112.609001
-15.362000	-73.094002	-112.720001
-15.507000	-73.152000	-112.755997
-15.692000	-73.224998	-112.957001
-15.935000	-73.321999	-113.055000
-16.209000	-73.431000	-113.101997
-16.346001	-73.486000	-113.156998
-16.554001	-73.569000	-113.318001
-16.799999	-73.667000	-113.411003
-17.018999	-73.753998	-113.545998
-17.150000	-73.806000	-113.621002
-17.312000	-73.870003	-113.855003
-17.611000	-73.989998	-113.857002
-17.771999	-74.054001	-113.879997
-17.959000	-74.127998	-114.070999
-18.131001	-74.195999	-114.285004
-18.351000	-74.283997	-114.415001
-18.454000	-74.323997	-114.545998
-18.686001	-74.417000	-114.658997
-18.809999	-74.466003	-114.749001
-19.021999	-74.550003	-114.894997
-19.228001	-74.632004	-115.058998
-19.398001	-74.698997	-115.275002
-19.549999	-74.760002	-115.315002
-19.806000	-74.862000	-115.387001
-20.025000	-74.948997	-115.514999
-20.108999	-74.982002	-115.677002
-20.256001	-75.039001	-115.926003
-20.427999	-75.107002	-116.125999
-20.523001	-75.143997	-116.264000
-20.745001	-75.233002	-116.389000
-20.875999	-75.285004	-116.475998
-21.086000	-75.367996	-116.612000
-21.212999	-75.417999	-116.726997
-21.381001	-75.484001	-116.945999
-21.496000	-75.529999	-117.060997
-21.718000	-75.619003	-117.189003
-21.896999	-75.689003	-117.391998
-22.100000	-75.769997	-117.547997
-22.173000	-75.796997	-117.723000
-22.299999	-75.847000	-117.986000
-22.437000	-75.901001	-118.056000
-22.665001	-75.991997	-118.164001
-22.757999	-76.028999	-118.328003
-22.952999	-76.106003	-118.486000
-23.069000	-76.152000	-118.624001
-23.256001	-76.225998	-118.797997
-23.361000	-76.266998	-118.934998
-23.487000	-76.316002	-119.202003
-23.632999	-76.373001	-119.434998
-23.712000	-76.403999	-119.612999
-23.830999	-76.450996	-119.735001
-24.044001	-76.536003	-119.842003
-24.152000	-76.578003	-119.996002
-24.267000	-76.622002	-120.265999
-24.370001	-76.663002	-120.417000
-24.504999	-76.716003	-120.533997
-24.650999	-76.774002	-120.749001
-24.707001	-76.794998	-120.983002
-24.816000	-76.836998	-121.138000
-24.929001	-76.880997	-121.419998
-24.990000	-76.903999	-121.634003
-25.146999	-76.964996	-121.847000
-25.281000	-77.018997	-121.959000
-25.466999	-77.092003	-122.117996
-25.537001	-77.119003	-122.330002
-25.604000	-77.144997	-122.538002
-25.738001	-77.196999	-122.775002
-25.799000	-77.220001	-122.999001
-26.004999	-77.302002	-123.137001
-26.086000	-77.333000	-123.334999
-26.149000	-77.357002	-123.549004
-26.346001	-77.434998	-123.695000
-26.391001	-77.452003	-123.936996
-26.548000	-77.514000	-124.140999
-26.559999	-77.515999	-124.432999
-26.638000	-77.545998	-124.628998
-26.754999	-77.593002	-124.786003
-26.915001	-77.654999	-124.975998
-27.013000	-77.694000	-125.157997
-27.038000	-77.702003	-125.438004
-27.110001	-77.728996	-125.709999
-27.198000	-77.763000	-125.910004
-27.294001	-77.800003	-126.125999
-27.393000	-77.838997	-126.339996
-19.570000	-75.202003	-126.575996
-19.840000	-75.311996	-126.640999
-20.063000	-75.403000	-126.699997
-20.521999	-75.591003	-126.918999
-20.768000	-75.692001	-126.882004
-21.007000	-75.789001	-127.027000
-21.320999	-75.917999	-127.205002
-21.535999	-76.005997	-127.271004
-21.954000	-76.177002	-127.406998
-22.256001	-76.300003	-127.532997
-27.629000	-78.498001	-128.391006
-27.663000	-78.512001	-128.632996
-27.700001	-78.527000	-128.876007
-27.834999	-78.582001	-129.167007
-27.882999	-78.601997	-129.414993
-27.917000	-78.615997	-129.709000
-28.000000	-78.649002	-129.973007
-28.101000	-78.691002	-130.244003
-28.135000	-78.704002	-130.487000
-28.191000	-78.727997	-130.785995
-28.205000	-78.733002	-131.016006
-28.249001	-78.750999	-131.263000
-28.222000	-78.739998	-131.466995
-28.313000	-78.777000	-131.750000
-28.281000	-78.764000	-131.949997
-28.348000	-78.791000	-132.218994
-28.455999	-78.834999	-132.516006
-28.356001	-78.793999	-132.667007
-28.455000	-78.834999	-132.957993
-28.462000	-78.836998	-133.182999
-28.496000	-78.850998	-133.427994
-28.503000	-78.853996	-133.654007
-28.510000	-78.857002	-133.878998
-28.483000	-78.845001	-134.080002
-28.427999	-78.822998	-134.261993
-28.462000	-78.836998	-134.507004
-28.440001	-78.828003	-134.710999
-28.547001	-78.872002	-135.005997
-28.535000	-78.865997	-135.216995
-28.459999	-78.835999	-135.384995
-28.525000	-78.862000	-135.649002
-28.534000	-78.865997	-135.873993
-28.569000	-78.879997	-136.117996
-28.499001	-78.851997	-136.289001
-28.378000	-78.802002	-136.423996
-28.530001	-78.863998	-136.746994
-28.409000	-78.815002	-136.882996
-28.466000	-78.837997	-137.145004
-28.443001	-78.828003	-137.348999
-28.415001	-78.817001	-137.544006
-28.421000	-78.819000	-137.766998
-28.346001	-78.788002	-137.957993
-28.281000	-78.762001	-138.117996
-28.264000	-78.754997	-138.317993
-28.198000	-78.727997	-138.481995
-28.188999	-78.723999	-138.692993
-28.187000	-78.723000	-138.908005
-28.020000	-78.654999	-138.975998
-28.056999	-78.669998	-139.216003
-27.993000	-78.642998	-139.434006
-27.979000	-78.638000	-139.636002
-27.924000	-78.614998	-139.860992
-27.868000	-78.592003	-140.022995
-27.841000	-78.581001	-140.209000
-27.792000	-78.560997	-140.380005
-27.656000	-78.504997	-140.473999
-27.747999	-78.542999	-140.832001
-27.679001	-78.514000	-140.983994
-27.683001	-78.515999	-141.201004
-27.579000	-78.473999	-141.367004
-27.507999	-78.445000	-141.503006
-27.430000	-78.412003	-141.658005
-27.429001	-78.412003	-141.871994
-27.341999	-78.375999	-142.013000
-27.215000	-78.323997	-142.108994
-27.089001	-78.273003	-142.266006
-27.027000	-78.247002	-142.412003
-26.985001	-78.230003	-142.673004
-26.989000	-78.232002	-142.886002
-26.929001	-78.207001	-143.112000
-26.704000	-78.114998	-143.313995
-26.684000	-78.107002	-143.507004
-26.577999	-78.063004	-143.684998
-26.486000	-78.026001	-143.813004
-26.426001	-78.000999	-144.050003
-26.372999	-77.978996	-144.201996
-26.326000	-77.959999	-144.365005
-26.250000	-77.929001	-144.578995
-26.159000	-77.891998	-144.703995
-26.049000	-77.846001	-144.806000
-25.913000	-77.791000	-144.970993
-25.837000	-77.760002	-145.098999
-25.719999	-77.711998	-145.289993
-25.695000	-77.700996	-145.472000
-25.488001	-77.616997	-145.559006
-25.365000	-77.566002	-145.632996
-25.195999	-77.497002	-145.761002
-25.118999	-77.466003	-145.886002
-25.096001	-77.456001	-146.164001
-24.982000	-77.408997	-146.255997
-24.664000	-77.278999	-146.432999
-24.598000	-77.251999	-146.576004
-24.597000	-77.251999	-146.878998
-24.537001	-77.226997	-147.024002
-24.374001	-77.160004	-147.166000
-24.099001	-77.047997	-147.386993
-24.000000	-77.007004	-147.487000
-23.875000	-76.956001	-147.664001
-23.754000	-76.905998	-147.740005
-23.487000	-76.796997	-147.759995
-23.372999	-76.750999	-147.835999
-23.271999	-76.709000	-148.046005
-23.264999	-76.706001	-148.244995
-22.986000	-76.592003	-148.246002
-22.820000	-76.524002	-148.386002
-22.773001	-76.504997	-148.692001
-22.642000	-76.450996	-148.725006
-22.441999	-76.369003	-148.826004
-22.264000	-76.296997	-148.955994
-22.108999	-76.233002	-149.110001
-21.996000	-76.186996	-149.175003
-21.888000	-76.141998	-149.380005
-21.752001	-76.086998	-149.546997
-21.614000	-76.030998	-149.595001
-21.396999	-75.942001	-149.673004
-21.245001	-75.878998	-149.699005
-21.052999	-75.801003	-149.809006
-20.878000	-75.728996	-149.945999
-20.815001	-75.704002	-150.074005
-20.587999	-75.610001	-150.143997
-20.356001	-75.515999	-150.207001
-20.183001	-75.445000	-150.354996
-19.955999	-75.351997	-150.423996
-19.740999	-75.264000	-150.505005
-19.516001	-75.171997	-150.572998
-19.287001	-75.078003	-150.643005
-19.205999	-75.044998	-150.737000
-19.024000	-74.970001	-150.876007
-18.820999	-74.887001	-150.979996
-18.739000	-74.853996	-151.059998
-18.379999	-74.707001	-150.936996
-18.101999	-74.593002	-150.925995
-18.039000	-74.567001	-151.037994
-17.843000	-74.487000	-151.149002
-17.587999	-74.383003	-151.179001
-17.363001	-74.291000	-151.251999
-17.176001	-74.213997	-151.373001
-16.971001	-74.129997	-151.462997
-16.809999	-74.064003	-151.466995
-16.577000	-73.969002	-151.528000
-16.465000	-73.922997	-151.567993
-16.195000	-73.813004	-151.552002
-16.099001	-73.774002	-151.628998
-16.000000	-73.733002	-151.725998
-15.723000	-73.620003	-151.720001
-15.445000	-73.505997	-151.699997
-15.164000	-73.390999	-151.679993
-14.911000	-73.288002	-151.710999
-14.748000	-73.221001	-151.697006
-14.464000	-73.105003	-151.673996
-14.229000	-73.008003	-151.735001
-14.059000	-72.939003	-151.725998
-13.743000	-72.809998	-151.632004
-13.570000	-72.738998	-151.619003
-13.306000	-72.630997	-151.628998
-13.027000	-72.516998	-151.602997
-12.863000	-72.449997	-151.617996
-12.562000	-72.325996	-151.544006
-12.417000	-72.266998	-151.593994
-12.125000	-72.148003	-151.546005
-11.911000	-72.059998	-151.449005
-11.629000	-71.945000	-151.417999
-11.357000	-71.834000	-151.414001
-11.166000	-71.755997	-151.373001
-10.874000	-71.636002	-151.326004
-10.522000	-71.491997	-151.143997
-10.325000	-71.412003	-151.087997
-10.111000	-71.323997	-151.016998
-9.847000	-71.216003	-151.007004
-9.643000	-71.133003	-150.979996
-9.422000	-71.042000	-150.895996
-9.114000	-70.916000	-150.766006
-8.890000	-70.824997	-150.681000
-8.672000	-70.735001	-150.626999
-8.381000	-70.615997	-150.526993
-8.131000	-70.514000	-150.369003
-7.890000	-70.416000	-150.248001
-7.664000	-70.322998	-150.158997
-7.381000	-70.208000	-150.087997
-7.138000	-70.108002	-149.949997
-6.860000	-69.994003	-149.798004
-6.614000	-69.893997	-149.651993
-6.395000	-69.804001	-149.522995
-6.137000	-69.698997	-149.324005
-5.392000	-69.393997	-149.044006
-2.055000	-69.892998	-113.886002
-2.430000	-70.045998	-113.670998
-2.675000	-70.144997	-113.554001
-2.904000	-70.237000	-113.478996
-3.250000	-70.376999	-113.342003
-3.495000	-70.475998	-113.225998
-3.863000	-70.625000	-113.038002
-4.074000	-70.709999	-113.007004
-4.413000	-70.847000	-112.897003
-4.646000	-70.941002	-112.795998
-4.959000	-71.068001	-112.760002
-5.153000	-71.146004	-112.732002
-5.489000	-71.280998	-112.643997
-5.841000	-71.424004	-112.523003
-6.135000	-71.542000	-112.537003
-6.363000	-71.634003	-112.419998
-6.692000	-71.766998	-112.350998
-6.892000	-71.847000	-112.292999
-7.168000	-71.958000	-112.334000
-7.488000	-72.086998	-112.280998
-7.783000	-72.205002	-112.289001
-8.089000	-72.328003	-112.276001
-8.404000	-72.455002	-112.249001
-8.735000	-72.588997	-112.193001
-8.987000	-72.689003	-112.289001
-9.271000	-72.803001	-112.321999
-9.533000	-72.907997	-112.398003
-9.849000	-73.035004	-112.366997
-10.151000	-73.156998	-112.363998
-10.443000	-73.274002	-112.380997
-10.753000	-73.398003	-112.362000
-11.028000	-73.508003	-112.411003
-11.292000	-73.613998	-112.481003
-11.569000	-73.724998	-112.524002
-11.802000	-73.818001	-112.650002
-12.087000	-73.931999	-112.677002
-12.334000	-74.030998	-112.773003
-12.473000	-74.086998	-112.817001
-12.707000	-74.180000	-112.935997
-12.941000	-74.273003	-113.056000
-13.260000	-74.401001	-113.024002
-13.500000	-74.497002	-113.130997
-13.741000	-74.593002	-113.238998
-13.881000	-74.649002	-113.279999
-14.133000	-74.750000	-113.365997
-14.403000	-74.858002	-113.417999
-14.673000	-74.966003	-113.473000
-14.930000	-75.069000	-113.550003
-15.112000	-75.140999	-113.765999
-15.388000	-75.250999	-113.806000
-15.537000	-75.310997	-113.833000
-15.774000	-75.404999	-113.943001
-15.967000	-75.482002	-114.126999
-16.177000	-75.565002	-114.276001
-16.323999	-75.624001	-114.324997
-16.548000	-75.712997	-114.453003
-16.789000	-75.809998	-114.554001
-16.926001	-75.863998	-114.619003
-17.163000	-75.958000	-114.725998
-17.388000	-76.047997	-114.853996
-17.615000	-76.138000	-114.974998
-17.726000	-76.181999	-115.084999
-17.955999	-76.274002	-115.203003
-18.172001	-76.360001	-115.337997
-18.288000	-76.405998	-115.446999
-18.443001	-76.467003	-115.683998
-18.670000	-76.556999	-115.796997
-18.781000	-76.600998	-115.919998
-18.997000	-76.686996	-116.056999
-19.101999	-76.727997	-116.185997
-19.253000	-76.787003	-116.432999
-19.502001	-76.887001	-116.515999
-19.663000	-76.950996	-116.550003
-19.882000	-77.038002	-116.685997
-20.041000	-77.099998	-116.917000
-20.150000	-77.143997	-117.037003
-20.311001	-77.207001	-117.264999
-20.577999	-77.314003	-117.308998
-20.677999	-77.352997	-117.450996
-20.837999	-77.416000	-117.680000
-20.948999	-77.459999	-117.797997
-21.160999	-77.543999	-117.933998
-21.351000	-77.619003	-118.116997
-21.483999	-77.671997	-118.205002
-21.667000	-77.744003	-118.397003
-21.774000	-77.786003	-118.522003
-21.957001	-77.859001	-118.704002
-22.127001	-77.926003	-118.920998
-22.254000	-77.975998	-119.008003
-22.413000	-78.039001	-119.236000
-22.525000	-78.083000	-119.348000
-22.642000	-78.127998	-119.628998
-22.829000	-78.203003	-119.647003
-22.997000	-78.268997	-119.848999
-23.101999	-78.309998	-119.995003
-23.202000	-78.348000	-120.302002
-23.327000	-78.398003	-120.415001
-23.518000	-78.473999	-120.582001
-23.587000	-78.500000	-120.782997
-23.766001	-78.570999	-120.968002
-23.885000	-78.617996	-121.093002
-24.070000	-78.691002	-121.268997
-24.177000	-78.733002	-121.411003
-24.318001	-78.788002	-121.634003
-24.455999	-78.843002	-121.739998
-24.582001	-78.891998	-121.983002
-24.719000	-78.946999	-122.099998
-24.851000	-78.998001	-122.212997
-25.004999	-79.058998	-122.433998
-25.128000	-79.108002	-122.556999
-25.218000	-79.141998	-122.867996
-25.301001	-79.174004	-123.046997
-25.445000	-79.230003	-123.261002
-25.556000	-79.274002	-123.414001
-25.590000	-79.286003	-123.678001
-25.650000	-79.307999	-123.907997
-25.830000	-79.379997	-124.070000
-25.917999	-79.414001	-124.262001
-26.038000	-79.460999	-124.517998
-26.136000	-79.499001	-124.690002
-26.176001	-79.513000	-124.941002
-26.311001	-79.567001	-125.072998
-26.459999	-79.625000	-125.287003
-26.520000	-79.647003	-125.516998
-26.584000	-79.671997	-125.705002
-26.603001	-79.678001	-125.940002
-26.854000	-79.778999	-126.024002
-27.011999	-79.842003	-125.982002
-19.511000	-77.337997	-124.430000
-19.726000	-77.426003	-124.511002
-21.396999	-78.109001	-124.931000
-22.605000	-78.603996	-125.109001
-25.943001	-79.969002	-125.237999
-26.115000	-80.039001	-125.627998
-26.183001	-80.067001	-125.869003
-26.313000	-80.120003	-126.250999
-26.472000	-80.184998	-126.507004
-26.702999	-80.278999	-126.904999
-26.802999	-80.320000	-127.276001
-26.858000	-80.343002	-127.504997
-27.023001	-80.410004	-127.877998
-27.115999	-80.447998	-128.126007
-27.235001	-80.497002	-128.397995
-27.311001	-80.527000	-128.651993
-27.358000	-80.546997	-128.972000
-27.437000	-80.579002	-129.229996
-27.570000	-80.633003	-129.576004
-27.601999	-80.646004	-129.815002
-27.650000	-80.666000	-130.057007
-27.718000	-80.694000	-130.313995
-27.789000	-80.722000	-130.580002
-27.854000	-80.749001	-130.860001
-27.879999	-80.760002	-131.100998
-27.969000	-80.795998	-131.380997
-28.052000	-80.830002	-131.645996
-28.000000	-80.808998	-131.841995
-28.039000	-80.823997	-132.093002
-28.100000	-80.848999	-132.352005
-28.120001	-80.857002	-132.574997
-28.207001	-80.892998	-132.841995
-28.237000	-80.904999	-133.087006
-28.233000	-80.903000	-133.302994
-28.250000	-80.910004	-133.570999
-28.302000	-80.931000	-133.822006
-28.436001	-80.986000	-134.123001
-28.368999	-80.959000	-134.309006
-28.375999	-80.960999	-134.539993
-28.409000	-80.974998	-134.783005
-28.490999	-81.008003	-135.059998
-28.483000	-81.004997	-135.274002
-28.440001	-80.987000	-135.453995
-28.408001	-80.973999	-135.647995
-28.393999	-80.968002	-135.856995
-28.403999	-80.972000	-136.080002
-28.347000	-80.948997	-136.306000
-28.358000	-80.953003	-136.528000
-28.370001	-80.958000	-136.748993
-28.322001	-80.939003	-136.914993
-28.318001	-80.936996	-137.104004
-28.336000	-80.944000	-137.328995
-28.339001	-80.945000	-137.546005
-28.346001	-80.947998	-137.804993
-28.323000	-80.938004	-138.003006
-28.332001	-80.942001	-138.229004
-28.322001	-80.938004	-138.436996
-28.318001	-80.935997	-138.651993
-28.316000	-80.934998	-138.865005
-28.346001	-80.947998	-139.106995
-28.257999	-80.911003	-139.292999
-28.187000	-80.882004	-139.445999
-28.128000	-80.858002	-139.606995
-28.141001	-80.863998	-139.835007
-28.009001	-80.808998	-139.990005
-28.000999	-80.806000	-140.203003
-27.937000	-80.779999	-140.438004
-27.937000	-80.779999	-140.645004
-27.864000	-80.750000	-140.772003
-27.823000	-80.733002	-140.994003
-27.818001	-80.731003	-141.177002
-27.787001	-80.718002	-141.356995
-27.665001	-80.667999	-141.466995
-27.653999	-80.664001	-141.664001
-27.698999	-80.681999	-141.910004
-27.524000	-80.610001	-142.009003
-27.530001	-80.612999	-142.229004
-27.473000	-80.588997	-142.397995
-27.413000	-80.565002	-142.557007
-27.354000	-80.540001	-142.772003
-27.250000	-80.498001	-142.886993
-27.215000	-80.484001	-143.061996
-27.170000	-80.464996	-143.311996
-27.118999	-80.444000	-143.468994
-27.042999	-80.413002	-143.684006
-27.059999	-80.419998	-143.910004
-26.926001	-80.364998	-143.990997
-26.801001	-80.314003	-144.080994
-26.702999	-80.274002	-144.274002
-26.664000	-80.258003	-144.447998
-26.486000	-80.184998	-144.570007
-26.434999	-80.164001	-144.723999
-26.351999	-80.129997	-144.936996
-26.263000	-80.094002	-145.050003
-26.233000	-80.081001	-145.285995
-26.225000	-80.078003	-145.490997
-26.202999	-80.069000	-145.671005
-26.084999	-80.019997	-145.776001
-25.836000	-79.918999	-145.770996
-25.856001	-79.927002	-146.057007
-25.778000	-79.894997	-146.199997
-25.733000	-79.875999	-146.365997
-25.570000	-79.808998	-146.496994
-25.322001	-79.708000	-146.445007
-25.316999	-79.706001	-146.744995
-25.202000	-79.658997	-146.826996
-25.107000	-79.620003	-147.037994
-25.089001	-79.612999	-147.227997
-24.944000	-79.553001	-147.382004
-24.858000	-79.517998	-147.494995
-24.747999	-79.473000	-147.688995
-24.594000	-79.410004	-147.729004
-24.568001	-79.399002	-148.014008
-24.424999	-79.341003	-148.065994
-24.273001	-79.278000	-148.212006
-24.177999	-79.238998	-148.317001
-24.024000	-79.176003	-148.464996
-23.978001	-79.157997	-148.623001
-23.799000	-79.084000	-148.742004
-23.662001	-79.028000	-148.916000
-23.587999	-78.998001	-149.031006
-23.363001	-78.905998	-149.098999
-23.254000	-78.861000	-149.181000
-23.136999	-78.813004	-149.365997
-22.988001	-78.751999	-149.408005
-22.820999	-78.683998	-149.544006
-22.737000	-78.649002	-149.643997
-22.570999	-78.581001	-149.787003
-22.354000	-78.491997	-149.865997
-22.166000	-78.416000	-149.985001
-22.068001	-78.375999	-150.220993
-22.018000	-78.355003	-150.354996
-21.886999	-78.301003	-150.541000
-21.635000	-78.197998	-150.565002
-21.523001	-78.152000	-150.634995
-21.306999	-78.064003	-150.718994
-21.139000	-77.995003	-150.852005
-21.058001	-77.961998	-150.960007
-20.915001	-77.903999	-151.136993
-20.660999	-77.800003	-151.162003
-20.566999	-77.761002	-151.253998
-20.455000	-77.714996	-151.466995
-20.180000	-77.602997	-151.475998
-19.964001	-77.514999	-151.403000
-19.733000	-77.419998	-151.457993
-19.556999	-77.348000	-151.595001
-19.438000	-77.299004	-151.817993
-19.202999	-77.203003	-151.878998
-18.924000	-77.088997	-151.869995
-18.707001	-77.000000	-151.953003
-18.542999	-76.932999	-152.110992
-18.294001	-76.831001	-152.143997
-18.111000	-76.755997	-152.263000
-17.882999	-76.663002	-152.322998
-17.767000	-76.614998	-152.380997
-17.551001	-76.527000	-152.464996
-17.408001	-76.468002	-152.472000
-17.153000	-76.363998	-152.483002
-17.042000	-76.319000	-152.531006
-16.833000	-76.233002	-152.634003
-16.663000	-76.164001	-152.598999
-16.410000	-76.059998	-152.623993
-16.200001	-75.973999	-152.716003
-16.075001	-75.922997	-152.725998
-15.788000	-75.805000	-152.709000
-15.665000	-75.754997	-152.733994
-15.403000	-75.648003	-152.753006
-15.168000	-75.552002	-152.813004
-14.935000	-75.456001	-152.876007
-14.665000	-75.346001	-152.878998
-14.503000	-75.279999	-152.865005
-14.246000	-75.175003	-152.891006
-13.951000	-75.054001	-152.830002
-13.766000	-74.977997	-152.804993
-13.544000	-74.888000	-152.891998
-13.321000	-74.795998	-152.789993
-13.149000	-74.725998	-152.794998
-12.893000	-74.621002	-152.787003
-12.626000	-74.512001	-152.774002
-12.408000	-74.422997	-152.662994
-12.156000	-74.320000	-152.701004
-11.887000	-74.209999	-152.707001
-11.563000	-74.077003	-152.597000
-11.354000	-73.990997	-152.518005
-11.193000	-73.926003	-152.563995
-10.937000	-73.820999	-152.585999
-10.753000	-73.746002	-152.554993
-10.434000	-73.614998	-152.431000
-10.166000	-73.505997	-152.235001
-9.900000	-73.397003	-152.240005
-9.609000	-73.278000	-152.167007
-9.417000	-73.198997	-152.158005
-9.156000	-73.093002	-151.966995
-8.922000	-72.997002	-151.871994
-8.707000	-72.908997	-151.835007
-8.425000	-72.793999	-151.735001
-8.192000	-72.697998	-151.628006
-7.955000	-72.600998	-151.516006
-7.658000	-72.480003	-151.386002
-7.415000	-72.380997	-151.237000
-7.176000	-72.282997	-151.136002
-6.925000	-72.180000	-150.981003
-6.663000	-72.072998	-150.759003
-6.449000	-71.986000	-150.798004
-6.230000	-71.896004	-150.725006
-5.924000	-71.771004	-150.552994
-5.404000	-71.558998	-150.184006
-5.112000	-71.439003	-150.061996
-1.499000	-71.817001	-115.264999
-2.497000	-72.222000	-114.706001
-2.759000	-72.328003	-114.538002
-2.975000	-72.415001	-114.501999
-3.283000	-72.539001	-114.482002
-3.533000	-72.640999	-114.335999
-3.893000	-72.786003	-114.179001
-4.257000	-72.933998	-114.024002
-4.450000	-73.011002	-114.011002
-4.786000	-73.147003	-113.924004
-4.999000	-73.233002	-113.855003
-5.356000	-73.376999	-113.714996
-5.704000	-73.517998	-113.612999
-5.913000	-73.601997	-113.537003
-6.229000	-73.728996	-113.509003
-6.554000	-73.860001	-113.462997
-6.850000	-73.978996	-113.473000
-7.159000	-74.102997	-113.459999
-7.451000	-74.221001	-113.472000
-7.753000	-74.342003	-113.453003
-7.908000	-74.403999	-113.484001
-8.221000	-74.529999	-113.452003
-8.547000	-74.661003	-113.390999
-8.708000	-74.725998	-113.412003
-8.973000	-74.832001	-113.477997
-9.289000	-74.959000	-113.441002
-9.622000	-75.094002	-113.371002
-9.884000	-75.197998	-113.445999
-10.141000	-75.301003	-113.530998
-10.380000	-75.396004	-113.643997
-10.693000	-75.522003	-113.616997
-11.004000	-75.647003	-113.596001
-11.234000	-75.738998	-113.723999
-11.376000	-75.795998	-113.762001
-11.687000	-75.920998	-113.742996
-11.918000	-76.013000	-113.869003
-12.175000	-76.115997	-113.948997
-12.471000	-76.235001	-113.954002
-12.734000	-76.339996	-114.026001
-12.981000	-76.438004	-114.127998
-13.251000	-76.545998	-114.181000
-13.563000	-76.671997	-114.152000
-13.752000	-76.747002	-114.355003
-13.937000	-76.820000	-114.560997
-14.122000	-76.893997	-114.518997
-14.394000	-77.002998	-114.566002
-14.643000	-77.102997	-114.654999
-14.886000	-77.199997	-114.758003
-15.020000	-77.252998	-114.818001
-15.264000	-77.350998	-114.916000
-15.434000	-77.417000	-115.140999
-15.692000	-77.521004	-115.208000
-15.858000	-77.586998	-115.223999
-16.059000	-77.667000	-115.392998
-16.278000	-77.753998	-115.533997
-16.421000	-77.810997	-115.584999
-16.662001	-77.906998	-115.686996
-16.900999	-78.002998	-115.792000
-17.120001	-78.088997	-115.929001
-17.313000	-78.166000	-116.112000
-17.451000	-78.221001	-116.170998
-17.719000	-78.328003	-116.223000
-17.870001	-78.389000	-116.264000
-18.079000	-78.472000	-116.418999
-18.313999	-78.566002	-116.530998
-18.497000	-78.638000	-116.730003
-18.672001	-78.707001	-116.945000
-18.790001	-78.752998	-117.038002
-18.975000	-78.827003	-117.217003
-19.101000	-78.876999	-117.311996
-19.351000	-78.976997	-117.394997
-19.566999	-79.061996	-117.535004
-19.695999	-79.113998	-117.621002
-19.825001	-79.164001	-117.894997
-19.958000	-79.216003	-118.135002
-20.114000	-79.278000	-118.197998
-20.222000	-79.320000	-118.342003
-20.451000	-79.411003	-118.457001
-20.600000	-79.471001	-118.519997
-20.785000	-79.543999	-118.709000
-20.934999	-79.602997	-118.972000
-21.183001	-79.702003	-119.052002
-21.270000	-79.736000	-119.208000
-21.443001	-79.804001	-119.406998
-21.622999	-79.875000	-119.593002
-21.750000	-79.925003	-119.681000
-21.930000	-79.997002	-119.875000
-22.052999	-80.044998	-119.982002
-22.223000	-80.112000	-120.183998
-22.346001	-80.161003	-120.292999
-22.490000	-80.217003	-120.532997
-22.631001	-80.272003	-120.773003
-22.768000	-80.327003	-120.863998
-22.889999	-80.375000	-120.981003
-23.007999	-80.420998	-121.250999
-23.115000	-80.462997	-121.394997
-23.329000	-80.547997	-121.540001
-23.443001	-80.593002	-121.670998
-23.608999	-80.657997	-121.877998
-23.680000	-80.684998	-122.075996
-23.839001	-80.748001	-122.292999
-23.999001	-80.811996	-122.352997
-24.136000	-80.864998	-122.585999
-24.214001	-80.894997	-122.781998
-24.287001	-80.921997	-123.101997
-24.349001	-80.945999	-123.334999
-24.554001	-81.028000	-123.334000
-24.688999	-81.081001	-123.569000
-24.834999	-81.139000	-123.670998
-24.941000	-81.180000	-123.955002
-25.033001	-81.216003	-124.139000
-25.153000	-81.263000	-124.268997
-25.344000	-81.338997	-124.424004
-25.476999	-81.390999	-124.542999
-25.562000	-81.422997	-124.857002
-25.636999	-81.452003	-125.055000
-25.737000	-81.490997	-125.219002
-25.806000	-81.516998	-125.470001
-25.920000	-81.561996	-125.660004
-25.985001	-81.585999	-125.904999
-26.054001	-81.612999	-126.126999
-14.091000	-77.283997	-119.963997
-14.394000	-77.407997	-120.143997
-15.174000	-77.726997	-120.561996
-24.229000	-81.430000	-123.386002
-24.457001	-81.524002	-123.793999
-24.961000	-81.730003	-124.605003
-25.177999	-81.818001	-125.012001
-25.396999	-81.907997	-125.417999
-25.604000	-81.991997	-125.819000
-25.693001	-82.028999	-126.046997
-25.879000	-82.103996	-126.445999
-26.084999	-82.188004	-126.841003
-26.218000	-82.242996	-127.083000
-26.362000	-82.302002	-127.468002
-26.537001	-82.373001	-127.845001
-26.636000	-82.414001	-128.091995
-26.732000	-82.453003	-128.348007
-26.813000	-82.486000	-128.688004
-26.913000	-82.527000	-128.949997
-27.010000	-82.566002	-129.216995
-27.107000	-82.606003	-129.550003
-27.195000	-82.641998	-129.811996
-27.207001	-82.647003	-130.041000
-27.278999	-82.676003	-130.285995
-27.389000	-82.721001	-130.641006
-27.513000	-82.772003	-130.899002
-27.598000	-82.806000	-131.250000
-27.679001	-82.838997	-131.584000
-27.684000	-82.841003	-131.781998
-27.732000	-82.861000	-132.009995
-27.891001	-82.926003	-132.313995
-27.948999	-82.948997	-132.570007
-27.952000	-82.949997	-132.792999
-27.959999	-82.954002	-133.018997
-28.025000	-82.980003	-133.313004
-28.146000	-83.028999	-133.598999
-28.176001	-83.042000	-133.837006
-28.209000	-83.055000	-134.078003
-28.172001	-83.040001	-134.274994
-28.108000	-83.014000	-134.459000
-28.177999	-83.042000	-134.720993
-28.228001	-83.063004	-134.970001
-28.318001	-83.098999	-135.276001
-28.389999	-83.128998	-135.529999
-28.336000	-83.107002	-135.705994
-28.362000	-83.116997	-135.934006
-28.308001	-83.095001	-136.098999
-28.330000	-83.103996	-136.371994
-28.312000	-83.097000	-136.574005
-28.281000	-83.084000	-136.764999
-28.353001	-83.112999	-137.035995
-28.410999	-83.137001	-137.289001
-28.296000	-83.089996	-137.427002
-28.200001	-83.050003	-137.578003
-28.254000	-83.071999	-137.834000
-28.275000	-83.081001	-138.065994
-28.281000	-83.083000	-138.287994
-28.297001	-83.089996	-138.516998
-28.246000	-83.069000	-138.697998
-28.216999	-83.056999	-138.891006
-28.291000	-83.086998	-139.162994
-28.284000	-83.084000	-139.373993
-28.266001	-83.075996	-139.574997
-28.193001	-83.046997	-139.766006
-28.163000	-83.035004	-139.955002
-28.010000	-82.972000	-140.046005
-28.073000	-82.997002	-140.313004
-28.173000	-83.038002	-140.604004
-28.073999	-82.998001	-140.744995
-28.016001	-82.973999	-140.912003
-28.009001	-82.971001	-141.115005
-27.978001	-82.958000	-141.356995
-27.945000	-82.945000	-141.542007
-27.910000	-82.930000	-141.722000
-27.785000	-82.878998	-141.882004
-27.764000	-82.871002	-142.072006
-27.702000	-82.845001	-142.227997
-27.590000	-82.799004	-142.341003
-27.702999	-82.845001	-142.690002
-27.664000	-82.829002	-142.867996
-27.527000	-82.773003	-142.973007
-27.483999	-82.755997	-143.151001
-27.424999	-82.731003	-143.315002
-27.313000	-82.685997	-143.436005
-27.308001	-82.683998	-143.681000
-27.231001	-82.652000	-143.830002
-27.219000	-82.647003	-144.033997
-27.245001	-82.657997	-144.268997
-27.148001	-82.617996	-144.403000
-27.052000	-82.578003	-144.522995
-26.981001	-82.549004	-144.722000
-26.844999	-82.492996	-144.804001
-26.797001	-82.473999	-144.962006
-26.801001	-82.474998	-145.251999
-26.752001	-82.455002	-145.414993
-26.704000	-82.435997	-145.574997
-26.594000	-82.389999	-145.759003
-26.551001	-82.373001	-145.923996
-26.384001	-82.305000	-146.052002
-26.308001	-82.273003	-146.177002
-26.222000	-82.237999	-146.397995
-26.166000	-82.214996	-146.544998
-26.114000	-82.194000	-146.804001
-26.048000	-82.167000	-146.940002
-25.857000	-82.087997	-147.042007
-25.711000	-82.028999	-147.087997
-25.625000	-81.992996	-147.307999
-25.598000	-81.982002	-147.488007
-25.521999	-81.952003	-147.701996
-25.413000	-81.906998	-147.798996
-25.347000	-81.879997	-148.018005
-25.218000	-81.827003	-148.102005
-25.084000	-81.772003	-148.167999
-24.947001	-81.716003	-148.330002
-24.878000	-81.688004	-148.464996
-24.725000	-81.625000	-148.615997
-24.634001	-81.587997	-148.723007
-24.416000	-81.498001	-148.791000
-24.420000	-81.500000	-149.005997
-24.372000	-81.480003	-149.246994
-24.214001	-81.416000	-149.298004
-24.157000	-81.391998	-149.449005
-24.016001	-81.334999	-149.608002
-23.912001	-81.292000	-149.701996
-23.790001	-81.241997	-149.886993
-23.606001	-81.167000	-150.005997
-23.438999	-81.098000	-150.014999
-23.334000	-81.055000	-150.225006
-23.351000	-81.061996	-150.451004
-23.170000	-80.987999	-150.563995
-22.929001	-80.889999	-150.615997
-22.816999	-80.844002	-150.688995
-22.650000	-80.776001	-150.822998
-22.611000	-80.759003	-150.987000
-22.407000	-80.676003	-151.087006
-22.267000	-80.619003	-151.113998
-22.034000	-80.523003	-151.169998
-21.941999	-80.486000	-151.216003
-21.836000	-80.442001	-151.442001
-21.718000	-80.393997	-151.485001
-21.584000	-80.338997	-151.666000
-21.473000	-80.293999	-151.856995
-21.339001	-80.238998	-151.901001
-21.173000	-80.170998	-152.048996
-20.886999	-80.054001	-152.033005
-20.750999	-79.998001	-152.072998
-20.554001	-79.917999	-152.179001
-20.358000	-79.836998	-152.283997
-20.246000	-79.791000	-152.347000
-20.113001	-79.737000	-152.535004
-19.976000	-79.681000	-152.714996
-19.723000	-79.577003	-152.753006
-19.608999	-79.530998	-152.811005
-19.371000	-79.432999	-152.863998
-19.153000	-79.344002	-152.944000
-18.955000	-79.263000	-153.054993
-18.714001	-79.164001	-153.104996
-18.507000	-79.080002	-153.203003
-18.316999	-79.001999	-153.328003
-18.103001	-78.914001	-153.414001
-17.816000	-78.796997	-153.389008
-17.594999	-78.707001	-153.462006
-17.395000	-78.625000	-153.563995
-17.177000	-78.536003	-153.641998
-17.083000	-78.497002	-153.718994
-16.862000	-78.406998	-153.796997
-16.554001	-78.280998	-153.755997
-16.308001	-78.180000	-153.796997
-16.098000	-78.094002	-153.891998
-15.860000	-77.997002	-153.945999
-15.553000	-77.871002	-153.880997
-15.413000	-77.814003	-153.904007
-15.186000	-77.721001	-153.975998
-14.939000	-77.620003	-154.014008
-14.783000	-77.556000	-154.005005
-14.479000	-77.431999	-153.944000
-14.228000	-77.329002	-153.977997
-13.950000	-77.214996	-153.968002
-13.690000	-77.109001	-153.987000
-13.421000	-76.999001	-153.981995
-13.273000	-76.938004	-153.998001
-12.986000	-76.820999	-153.955002
-12.800000	-76.745003	-153.921997
-12.529000	-76.634003	-153.903000
-12.364000	-76.566002	-153.914001
-12.080000	-76.449997	-153.878006
-11.887000	-76.371002	-153.834000
-11.584000	-76.247002	-153.753006
-11.326000	-76.141998	-153.761993
-11.119000	-76.056999	-153.699997
-10.897000	-75.967003	-153.619003
-10.689000	-75.880997	-153.591003
-10.434000	-75.777000	-153.576996
-10.269000	-75.709000	-153.604996
-9.995000	-75.597000	-153.376007
-9.665000	-75.461998	-153.212006
-9.404000	-75.356003	-153.218994
-9.183000	-75.264999	-153.123001
-9.008000	-75.194000	-153.136002
-8.679000	-75.058998	-152.988998
-8.489000	-74.981003	-152.988998
-8.176000	-74.853996	-152.848007
-7.935000	-74.754997	-152.707993
-7.661000	-74.642998	-152.546005
-7.440000	-74.552002	-152.393997
-7.198000	-74.454002	-152.289993
-6.966000	-74.359001	-152.244003
-6.722000	-74.259003	-152.125000
-6.442000	-74.143997	-151.953003
-6.192000	-74.042000	-151.794998
-5.941000	-73.940002	-151.630997
-5.462000	-73.742996	-151.473999
-5.211000	-73.640999	-151.328995
-4.952000	-73.535004	-151.110001
-1.836000	-74.101997	-116.115997
-2.441000	-74.346001	-115.825996
-2.799000	-74.490997	-115.663002
-3.050000	-74.593002	-115.518997
-3.623000	-74.824997	-115.309998
-3.927000	-74.946999	-115.300003
-4.159000	-75.041000	-115.190002
-4.532000	-75.192001	-115.008003
-4.862000	-75.324997	-114.946999
-5.032000	-75.392998	-114.959999
-5.375000	-75.531998	-114.860001
-5.739000	-75.679001	-114.717003
-6.068000	-75.811996	-114.647003
-6.203000	-75.864998	-114.739998
-6.502000	-75.985001	-114.744003
-6.878000	-76.138000	-114.567001
-7.043000	-76.204002	-114.580002
-7.408000	-76.350998	-114.436996
-7.685000	-76.461998	-114.486000
-7.929000	-76.559998	-114.594002
-8.274000	-76.698997	-114.513000
-8.425000	-76.759003	-114.522003
-8.730000	-76.882004	-114.503998
-8.950000	-76.970001	-114.642998
-9.128000	-77.042000	-114.602997
-9.442000	-77.167999	-114.568001
-9.742000	-77.289001	-114.568001
-9.925000	-77.362000	-114.522003
-10.135000	-77.445000	-114.692001
-10.259000	-77.495003	-114.745003
-10.546000	-77.610001	-114.771004
-10.851000	-77.733002	-114.762001
-11.148000	-77.851997	-114.765999
-11.400000	-77.953003	-114.857002
-11.663000	-78.057999	-114.929001
-11.957000	-78.176003	-114.938004
-12.198000	-78.272003	-115.051003
-12.465000	-78.378998	-115.109001
-12.693000	-78.470001	-115.238998
-12.964000	-78.579002	-115.290001
-13.086000	-78.626999	-115.364998
-13.360000	-78.737000	-115.413002
-13.644000	-78.850998	-115.440002
-13.856000	-78.934998	-115.607002
-14.085000	-79.026001	-115.741997
-14.352000	-79.133003	-115.793999
-14.616000	-79.238998	-115.843002
-14.860000	-79.335999	-115.930000
-14.988000	-79.387001	-116.005997
-15.211000	-79.475998	-116.135002
-15.350000	-79.530998	-116.202003
-15.603000	-79.632004	-116.279999
-15.817000	-79.717003	-116.429001
-16.052999	-79.811996	-116.542000
-16.188000	-79.864998	-116.602997
-16.395000	-79.947998	-116.764000
-16.617001	-80.036003	-116.899002
-16.893999	-80.147003	-116.933998
-17.004999	-80.191002	-117.042999
-17.209000	-80.272003	-117.207001
-17.464001	-80.374001	-117.277000
-17.590000	-80.424004	-117.369003
-17.777000	-80.498001	-117.558998
-17.996000	-80.584999	-117.690002
-18.131001	-80.639000	-117.765999
-18.312000	-80.709999	-117.968002
-18.542000	-80.801003	-118.088997
-18.650999	-80.844002	-118.202003
-18.882999	-80.936996	-118.317001
-19.097000	-81.022003	-118.464996
-19.226000	-81.071999	-118.775002
-19.368999	-81.128998	-118.818001
-19.618000	-81.228996	-118.899002
-19.822001	-81.308998	-119.066002
-20.020000	-81.388000	-119.232002
-20.125999	-81.429001	-119.355003
-20.283001	-81.490997	-119.571999
-20.542999	-81.596001	-119.599998
-20.591999	-81.613998	-119.818001
-20.764000	-81.681999	-120.028999
-20.910000	-81.739998	-120.091003
-21.045000	-81.792999	-120.194000
-21.205000	-81.856003	-120.413002
-21.358000	-81.916000	-120.648003
-21.549999	-81.992996	-120.653999
-21.740000	-82.068001	-120.832001
-21.846001	-82.110001	-120.958000
-21.978001	-82.162003	-121.214996
-22.072001	-82.197998	-121.377998
-22.216000	-82.254997	-121.617996
-22.365999	-82.314003	-121.694000
-22.601000	-82.407997	-121.792999
-22.749001	-82.467003	-121.871002
-22.861000	-82.510002	-122.161003
-22.961000	-82.549004	-122.316002
-23.129000	-82.615997	-122.517998
-23.246000	-82.662003	-122.646004
-23.377001	-82.712997	-122.906998
-23.506001	-82.764000	-123.014999
-23.562000	-82.783997	-123.369003
-23.709999	-82.843002	-123.461998
-23.857000	-82.900002	-123.672997
-24.065001	-82.984001	-123.684998
-24.184000	-83.030998	-123.818001
-24.361000	-83.100998	-124.002998
-24.417000	-83.122002	-124.227997
-24.507000	-83.155998	-124.558998
-24.608000	-83.195999	-124.710999
-24.819000	-83.278999	-124.834999
-24.889999	-83.306999	-125.044998
-25.007000	-83.351997	-125.341003
-25.106001	-83.389999	-125.528999
-25.226999	-83.438004	-125.635002
-25.323000	-83.475998	-125.717003
-25.586000	-83.581001	-125.777000
-25.764999	-83.653999	-125.692001
-24.437000	-83.675003	-125.012001
-24.716999	-83.789001	-125.417999
-24.801001	-83.822998	-125.580002
-24.985001	-83.899002	-125.977997
-25.107000	-83.947998	-126.214996
-25.367001	-84.055000	-126.617996
-25.566000	-84.136002	-127.009003
-25.670000	-84.178001	-127.251999
-25.788000	-84.226997	-127.629997
-25.966999	-84.300003	-127.890999
-26.052999	-84.334999	-128.251999
-26.174999	-84.385002	-128.505997
-26.295000	-84.433998	-128.880997
-26.451000	-84.498001	-129.134003
-26.648001	-84.578003	-129.524002
-26.722000	-84.608002	-129.886002
-26.806999	-84.642998	-130.119003
-26.982000	-84.713997	-130.492004
-27.034000	-84.735001	-130.723007
-27.118000	-84.769997	-130.977997
-27.167000	-84.790001	-131.223007
-27.268000	-84.831001	-131.554993
-27.363001	-84.870003	-131.820007
-27.405001	-84.887001	-132.059998
-27.507999	-84.929001	-132.386002
-27.559000	-84.949997	-132.626007
-27.582001	-84.959000	-132.862000
-27.639000	-84.982002	-133.113998
-27.684999	-85.000999	-133.360992
-27.761000	-85.031998	-133.623001
-27.851000	-85.069000	-133.929993
-27.900000	-85.088997	-134.177994
-27.916000	-85.095001	-134.406998
-27.898001	-85.086998	-134.617996
-27.899000	-85.087997	-134.839005
-27.972000	-85.117996	-135.098999
-28.051001	-85.150002	-135.399002
-28.115000	-85.176003	-135.651993
-28.122000	-85.179001	-135.875000
-28.148001	-85.189003	-136.108994
-28.200001	-85.210999	-136.362000
-28.195000	-85.209000	-136.578003
-28.174999	-85.199997	-136.781998
-28.193001	-85.208000	-137.013000
-28.166000	-85.195999	-137.212006
-28.209999	-85.213997	-137.460999
-28.191999	-85.207001	-137.667007
-28.230000	-85.223000	-137.910995
-28.271000	-85.238998	-138.156998
-28.230000	-85.222000	-138.345993
-28.174000	-85.198997	-138.524994
-28.193001	-85.207001	-138.753998
-28.193001	-85.207001	-138.970001
-28.264000	-85.236000	-139.244003
-28.260000	-85.234001	-139.457001
-28.222000	-85.218002	-139.677002
-28.171000	-85.197998	-139.848999
-28.177000	-85.199997	-140.063995
-28.073999	-85.157997	-140.197998
-28.073999	-85.157997	-140.412994
-28.118000	-85.176003	-140.667007
-28.103001	-85.168999	-140.871994
-28.076000	-85.157997	-141.100006
-28.051001	-85.148003	-141.289993
-27.981001	-85.119003	-141.442001
-27.926001	-85.097000	-141.615005
-27.923000	-85.096001	-141.826004
-27.895000	-85.084000	-142.020996
-27.855000	-85.067001	-142.203003
-27.868000	-85.072998	-142.464996
-27.850000	-85.065002	-142.660004
-27.802999	-85.045998	-142.841995
-27.730000	-85.015999	-142.994003
-27.707001	-85.007004	-143.192001
-27.671000	-84.991997	-143.378006
-27.627001	-84.973999	-143.619003
-27.577999	-84.954002	-143.796005
-27.545000	-84.940002	-144.063004
-27.521999	-84.931000	-144.240005
-27.541000	-84.938004	-144.466003
-27.386000	-84.875000	-144.598007
-27.330000	-84.851997	-144.737000
-27.270000	-84.827003	-144.886993
-27.070000	-84.746002	-144.957001
-26.983000	-84.709999	-145.070007
-27.004999	-84.719002	-145.292007
-26.917999	-84.682999	-145.440002
-26.931000	-84.688004	-145.660004
-26.885000	-84.669998	-145.850998
-26.811001	-84.639000	-146.003006
-26.709999	-84.598000	-146.186996
-26.587000	-84.547997	-146.285995
-26.572001	-84.541000	-146.567001
-26.487000	-84.507004	-146.684006
-26.445000	-84.488998	-146.850006
-26.363001	-84.456001	-147.054993
-26.205999	-84.390999	-147.104004
-26.170000	-84.375999	-147.285004
-26.058001	-84.331001	-147.460007
-15.928000	-92.647003	-123.488998
-25.697001	-84.182999	-147.817001
-15.763000	-92.581001	-123.485001
-15.497000	-92.474998	-123.444000
-15.336000	-92.412003	-123.181000
-15.096000	-92.316002	-123.071999
-14.861000	-92.222000	-122.955002
-14.592000	-92.114998	-122.902000
-14.448000	-92.056999	-122.867996
-14.184000	-91.950996	-122.801003
-13.981000	-91.871002	-122.625000
-13.739000	-91.774002	-122.522003
-13.470000	-91.667000	-122.466003
-13.319000	-91.606003	-122.436996
-13.065000	-91.504997	-122.352997
-12.824000	-91.407997	-122.250000
-12.581000	-91.311996	-122.149002
-12.454000	-91.261002	-122.084000
-12.263000	-91.184998	-121.883003
-11.994000	-91.078003	-121.828003
-11.709000	-90.962997	-121.806000
-11.429000	-90.850998	-121.769997
-11.143000	-90.736000	-121.748001
-10.874000	-90.628998	-121.688004
-10.605000	-90.521004	-121.629997
-10.330000	-90.411003	-121.581001
-10.060000	-90.302002	-121.524002
-9.811000	-90.203003	-121.424004
-9.518000	-90.085999	-121.411003
-9.210000	-89.961998	-121.429001
-8.921000	-89.846001	-121.406998
-8.646000	-89.735001	-121.359001
-8.320000	-89.603996	-121.414001
-8.170000	-89.543999	-121.400002
-7.909000	-89.439003	-121.316002
-7.768000	-89.383003	-121.319000
-7.454000	-89.257004	-121.348999
-7.303000	-89.195999	-121.339996
-7.025000	-89.084999	-121.291000
-6.715000	-88.959999	-121.301003
-6.372000	-88.820999	-121.397003
-6.068000	-88.698997	-121.407997
-5.768000	-88.579002	-121.407997
-5.549000	-88.489998	-121.519997
-5.183000	-88.342003	-121.670998
-4.926000	-88.238998	-121.567001
-4.593000	-88.105003	-121.650002
-4.372000	-88.015999	-121.745003
-4.018000	-87.872002	-121.887001
-3.843000	-87.802002	-121.845001
-3.470000	-87.651001	-122.042000
-3.239000	-87.557999	-122.163002
-2.878000	-87.411003	-122.319000
-2.572000	-87.288002	-122.338997
-2.347000	-87.196999	-122.424004
-1.367000	-86.800003	-122.931999
-21.825001	-92.848000	-125.681999
-21.565001	-92.741997	-125.924004
-21.139000	-92.569000	-126.208000
-20.976000	-92.502998	-126.242996
-20.761999	-92.418999	-126.073997
-20.517000	-92.320999	-125.949997
-20.389999	-92.269997	-125.861000
-20.169001	-92.182999	-125.704002
-20.048000	-92.135002	-125.593002
-19.931999	-92.089996	-125.292000
