     -10.032352      -21.888859     -128.328979
      -9.925484      -21.900867     -128.132965
      -9.841597      -21.909283     -127.990974
      -9.776958      -21.916126     -127.828972
      -9.692785      -21.925503     -127.620979
      -9.597887      -21.935863     -127.483971
      -9.548378      -21.940945     -127.309975
      -9.518118      -21.944462     -127.113976
      -9.379074      -21.959415     -126.957970
      -9.340290      -21.963520     -126.773979
      -9.286379      -21.969379     -126.601967
      -9.239071      -21.974087     -126.419975
      -9.077332      -21.991673     -126.279976
      -9.078575      -21.991001     -126.064980
      -9.071970      -21.992161     -125.861977
      -9.028780      -21.997051     -125.685966
      -8.828259      -22.018742     -125.567970
      -8.806807      -22.020702     -125.369972
      -8.761419      -22.025974     -125.121971
      -8.717272      -22.030567     -124.944969
      -8.623617      -22.040257     -124.805977
      -8.608488      -22.042011     -124.597969
      -8.624861      -22.039585     -124.323967
      -8.570663      -22.046398     -124.146980
      -8.467241      -22.057354     -124.002968
      -8.417730      -22.062443     -123.820976
      -8.406048      -22.063137     -123.607979
      -8.417730      -22.062443     -123.383980
      -8.377989      -22.066265     -123.195976
      -8.381151      -22.066158     -122.937981
      -8.334803      -22.071140     -122.753975
      -8.270163      -22.077991     -122.581978
      -8.205524      -22.084835     -122.402977
      -8.209930      -22.084049     -122.178978
      -8.222858      -22.082684     -121.954979
      -8.205524      -22.084835     -121.750969
      -8.135523      -22.092167     -121.584969
      -8.150654      -22.090405     -121.319969
      -8.143089      -22.091282     -121.104973
      -8.085056      -22.096966     -120.918968
      -8.063320      -22.099888     -120.705971
      -8.118477      -22.093349     -120.412971
      -8.167027      -22.087978     -120.168968
      -8.104307      -22.095394     -119.985970
      -8.046274      -22.101070     -119.809975
      -8.102390      -22.094822     -119.574974
      -8.143375      -22.090328     -119.326973
      -8.154100      -22.089352     -119.095970
      -8.131405      -22.091984     -118.887978
      -8.166067      -22.087696     -118.642967
      -8.099226      -22.094929     -118.460976
      -8.169230      -22.087597     -118.192970
      -8.170471      -22.086926     -117.968971
      -8.188765      -22.085056     -117.732979
      -8.293428      -22.073437     -117.443977
      -8.317083      -22.071079     -117.204979
      -8.327808      -22.070103     -116.972969
      -8.340734      -22.068737     -116.740974
      -8.391489      -22.062977     -116.483971
      -8.390532      -22.062687     -116.260979
      -8.434675      -22.058094     -116.006981
      -8.448847      -22.056057     -115.772972
      -8.575922      -22.042751     -115.467979
      -8.603981      -22.039623     -115.218971
      -8.669865      -22.032108     -114.952980
      -8.744268      -22.023998     -114.686974
      -8.801342      -22.018032     -114.430977
      -8.901604      -22.007183     -114.107971
      -9.013834      -21.994686     -113.828972
      -9.063343      -21.989590     -113.578972
      -9.149717      -21.979832     -113.311974
      -9.211197      -21.973087     -113.008972
      -9.217518      -21.972881     -112.770973
      -9.319023      -21.961361     -112.493973
      -9.448299      -21.947681     -112.208977
      -9.618847      -21.928539     -111.909973
      -9.679367      -21.921513     -111.587975
      -9.761053      -21.913479     -111.327972
     -10.006966      -21.886517     -110.926971
     -10.073807      -21.879284     -110.675972
     -10.191399      -21.866291     -110.404976
     -10.328527      -21.850765     -110.035973
     -10.397285      -21.844105     -109.779976
     -10.665894      -21.814503     -109.372971
     -10.755428      -21.804638     -109.128975
     -10.828590      -21.797199     -108.886971
     -11.821722      -21.689030     -107.215973
     -12.061028      -21.663227     -106.789970
     -12.183983      -21.649746     -106.553970
     -31.389809      -17.567234     -133.088959
     -30.497225      -17.663601     -133.450989
     -30.239628      -17.691257     -133.537964
     -29.996876      -17.718121     -133.613983
     -29.640263      -17.755955     -133.705963
     -29.307976      -17.792683     -133.759979
     -29.053541      -17.820240     -133.848969
     -28.484434      -17.881428     -133.979980
     -28.238523      -17.908398     -134.041962
     -27.665012      -17.970356     -134.169983
     -27.414982      -17.997135     -134.246979
     -27.071011      -18.034565     -134.335968
     -26.827301      -18.061138     -134.407959
     -26.479210      -18.098385     -134.483978
     -26.247467      -18.123310     -134.544983
     -25.963730      -18.154667     -134.502960
     -25.655668      -18.187122     -134.494965
     -25.469990      -18.208019     -134.501984
     -25.101406      -18.247517     -134.589966
     -24.821114      -18.277813     -134.542969
     -24.480305      -18.315128     -134.583984
     -24.296156      -18.334393     -134.593964
     -23.999489      -18.367123     -134.573975
     -23.704069      -18.399174     -134.550964
     -23.359138      -18.436321     -134.597961
     -23.061516      -18.468754     -134.582977
     -22.899778      -18.486340     -134.573975
     -22.538757      -18.524960     -134.680969
     -22.295050      -18.551533     -134.582977
     -22.149685      -18.566692     -134.497986
     -21.875713      -18.596783     -134.643982
     -21.542753      -18.632267     -134.680969
     -21.324898      -18.656116     -134.543976
     -21.085592      -18.681911     -134.442963
     -20.838722      -18.708591     -134.355988
     -20.602575      -18.734295     -134.253967
     -20.295185      -18.767994     -134.244965
     -19.926601      -18.807491     -134.314972
     -19.692659      -18.832798     -134.209961
     -19.419933      -18.862217     -134.156982
     -19.203321      -18.885380     -134.030975
     -18.994276      -18.907673     -133.894989
     -18.692249      -18.940884     -133.881989
     -18.451984      -18.966404     -133.789978
     -18.193144      -18.994740     -133.723969
     -17.963604      -19.019276     -133.624969
     -17.816996      -19.035107     -133.578979
     -17.612068      -19.057583     -133.450989
     -17.504242      -19.069309     -133.364960
     -17.207863      -19.101070     -133.338959
     -17.039801      -19.118870     -133.170959
     -16.768993      -19.148853     -133.116974
     -16.618265      -19.164501     -132.921967
     -16.525568      -19.174473     -132.819977
     -16.231106      -19.206806     -132.791962
     -16.065247      -19.224216     -132.619965
     -15.920839      -19.239666     -132.566986
     -15.732002      -19.260662     -132.426971
     -15.521997      -19.282665     -132.305969
     -15.414171      -19.294392     -132.224976
     -15.235100      -19.314121     -132.064972
     -15.049707      -19.334064     -131.911987
     -14.837215      -19.357410     -131.792969
     -14.647703      -19.377163     -131.647980
     -14.481560      -19.395535     -131.624969
     -14.346918      -19.409710     -131.429962
     -14.285440      -19.416454     -131.283966
     -14.037611      -19.442852     -131.206970
     -13.899527      -19.458080     -131.129974
     -13.773409      -19.471676     -130.935974
     -13.651413      -19.485439     -130.842987
     -13.549234      -19.495716     -130.625977
     -13.410189      -19.510670     -130.554962
     -13.196739      -19.533733     -130.442963
     -13.113525      -19.543392     -130.320984
     -12.985491      -19.556408     -130.116974
     -12.855927      -19.571064     -129.916962
     -12.665173      -19.591488     -129.903961
     -12.447317      -19.615330     -129.796967
     -12.383923      -19.621502     -129.644989
     -12.300993      -19.630199     -129.410980
     -12.172674      -19.644176     -129.318970
     -12.067049      -19.655514     -129.112976
     -11.953861      -19.667728     -129.002960
     -11.897747      -19.673977     -128.839966
     -11.798443      -19.685108     -128.630981
     -11.659399      -19.700069     -128.541962
     -11.546209      -19.712284     -128.345978
     -11.412813      -19.725788     -128.256989
     -11.328640      -19.735165     -128.116974
     -11.180786      -19.751675     -127.950981
     -11.154932      -19.754406     -127.759972
     -11.091536      -19.760578     -127.517967
     -10.991274      -19.771427     -127.394981
     -10.934202      -19.777386     -127.223976
     -10.787306      -19.794186     -127.067970
     -10.632174      -19.810612     -126.977974
     -10.669998      -19.806217     -126.738976
     -10.565332      -19.817844     -126.617973
     -10.431652      -19.832302     -126.440971
     -10.283123      -19.847569     -126.366982
     -10.200195      -19.856266     -126.144981
     -10.188227      -19.857922     -125.937981
     -10.173096      -19.859684     -125.732979
     -10.025528      -19.875225     -125.571968
      -9.972574      -19.881374     -125.398979
      -9.961847      -19.882359     -125.188972
      -9.904774      -19.888317     -124.956978
      -9.773294      -19.902401     -124.849968
      -9.726946      -19.907383     -124.670967
      -9.725988      -19.907093     -124.457970
      -9.625441      -19.918903     -124.260979
      -9.531786      -19.928593     -124.122978
      -9.493002      -19.932697     -123.936974
      -9.475958      -19.933880     -123.675972
      -9.417639      -19.940517     -123.504967
      -9.357407      -19.946583     -123.333977
      -9.289322      -19.954487     -123.174980
      -9.289322      -19.954487     -122.956978
      -9.275434      -19.955578     -122.684975
      -9.199783      -19.964359     -122.531975
      -9.093203      -19.975414     -122.341972
      -9.001465      -19.985661     -122.204979
      -8.995142      -19.985874     -121.996971
      -9.040533      -19.980595     -121.747978
      -9.044653      -19.980778     -121.528969
      -8.989779      -19.986362     -121.341972
      -9.022242      -19.982464     -121.099968
      -9.066387      -19.977863     -120.849968
      -8.901489      -19.995556     -120.734978
      -8.833689      -20.002499     -120.566978
      -8.828041      -20.003948     -120.354973
      -8.824881      -20.004047     -120.138969
      -8.832445      -20.003170     -119.874977
      -8.813194      -20.004749     -119.668968
      -8.796824      -20.007175     -119.459969
      -8.726822      -20.014515     -119.284981
      -8.752962      -20.010815     -119.043968
      -8.813194      -20.004749     -118.780968
      -8.841253      -20.001621     -118.538979
      -8.815397      -20.004360     -118.336967
      -8.814440      -20.004078     -118.078972
      -8.826124      -20.003376     -117.861977
      -8.861748      -19.999371     -117.629967
      -8.843456      -20.001240     -117.419975
      -8.942759      -19.990101     -117.143974
      -8.900816      -19.994312     -116.930977
      -8.898613      -19.994694     -116.704979
      -8.868353      -19.998211     -116.518974
      -8.905220      -19.993534     -116.269981
      -8.944002      -19.989429     -116.004967
      -8.944962      -19.989712     -115.773979
      -9.061594      -19.976437     -115.491982
      -9.142324      -19.968121     -115.225975
      -9.144526      -19.967731     -114.992973
      -9.180149      -19.963726     -114.708977
      -9.197479      -19.961590     -114.474968
      -9.241625      -19.956989     -114.220970
      -9.348495      -19.944973     -113.940971
      -9.423859      -19.937145     -113.675972
      -9.505829      -19.928165     -113.406975
      -9.529484      -19.925808     -113.127975
      -9.622463      -19.914890     -112.853973
      -9.696583      -19.907734     -112.586975
      -9.751741      -19.901196     -112.330971
      -9.833712      -19.892208     -112.057976
      -9.958872      -19.878338     -111.779976
     -10.035194      -19.870800     -111.460976
     -10.044001      -19.869251     -111.224976
     -10.139858      -19.859173     -110.959976
     -10.330898      -19.837788     -110.578972
     -10.399942      -19.830166     -110.320976
     -10.503365      -19.819218     -110.052971
     -10.705132      -19.796848     -109.667976
     -10.833448      -19.782879     -109.390976
     -10.931509      -19.772419     -109.130974
     -11.085682      -19.755711     -108.757973
     -11.178379      -19.745739     -108.504974
     -11.358410      -19.726284     -108.110977
     -11.504061      -19.710171     -107.855972
     -11.888060      -19.667965     -107.034973
     -12.372032      -19.615871     -106.370972
     -29.318300      -15.781033     -132.988983
     -29.206070      -15.793533     -132.973969
     -28.948189      -15.822155     -132.885986
     -28.613026      -15.858028     -132.925964
     -28.367115      -15.884991     -133.016968
     -28.151749      -15.907486     -133.053986
     -27.803371      -15.945686     -133.125977
     -27.453079      -15.983318     -133.203979
     -27.216934      -16.009014     -133.269989
     -26.859074      -16.047527     -133.356964
     -26.685368      -16.066769     -133.322968
     -26.356525      -16.102436     -133.369965
     -26.165771      -16.122860     -133.347961
     -25.807913      -16.161373     -133.448975
     -25.654696      -16.178371     -133.367981
     -25.360519      -16.209751     -133.351959
     -25.115564      -16.237003     -133.455963
     -24.789211      -16.271320     -133.480988
     -24.542339      -16.298008     -133.387970
     -24.160545      -16.339817     -133.485962
     -23.838310      -16.374325     -133.494965
     -23.589237      -16.401386     -133.405975
     -23.424335      -16.419086     -133.399963
     -23.156971      -16.448017     -133.337982
     -22.836655      -16.483089     -133.342987
     -22.572453      -16.511913     -133.275970
     -22.485119      -16.521389     -133.181976
     -22.144592      -16.557758     -133.216980
     -21.949432      -16.578960     -133.265961
     -21.694038      -16.606236     -133.190979
     -21.408382      -16.637020     -133.152985
     -21.144180      -16.665844     -133.082977
     -20.873659      -16.694874     -133.019989
     -20.631191      -16.720776     -132.925964
     -20.334526      -16.753506     -132.902985
     -20.049831      -16.784580     -132.858978
     -19.721275      -16.819286     -132.868988
     -19.597076      -16.833439     -132.630981
     -19.334114      -16.861599     -132.563965
     -19.184345      -16.877529     -132.535980
     -18.989185      -16.898731     -132.390961
     -18.725941      -16.927845     -132.328979
     -18.547153      -16.946621     -132.159973
     -18.249533      -16.979061     -132.141968
     -17.981211      -17.007694     -132.082977
     -17.778486      -17.029781     -131.938965
     -17.493790      -17.060856     -131.899963
     -17.297670      -17.081776     -131.753967
     -17.090828      -17.103672     -131.626984
     -16.889061      -17.126041     -131.647980
     -16.706829      -17.145878     -131.491974
     -16.585115      -17.158695     -131.280975
     -16.430943      -17.175404     -131.231964
     -16.232622      -17.196705     -131.099976
     -16.123838      -17.208149     -131.007965
     -15.902821      -17.232098     -130.899963
     -15.691572      -17.254772     -130.779968
     -15.545921      -17.270885     -130.588959
     -15.440298      -17.282223     -130.493988
     -15.217365      -17.305599     -130.388977
     -15.119020      -17.317013     -130.278961
     -14.911221      -17.338627     -130.159973
     -14.792381      -17.352299     -130.074982
     -14.655540      -17.366863     -129.878967
     -14.489683      -17.384266     -129.715973
     -14.354757      -17.399403     -129.642975
     -14.281595      -17.406841     -129.386963
     -14.160841      -17.419933     -129.299988
     -13.930058      -17.445148     -129.203979
     -13.774925      -17.461567     -129.155975
     -13.613186      -17.479160     -128.986969
     -13.471939      -17.494503     -128.797974
     -13.382404      -17.504368     -128.678986
     -13.281183      -17.514927     -128.456970
     -13.118484      -17.532238     -128.399963
     -13.004053      -17.545124     -128.207977
     -12.923326      -17.553440     -128.063965
     -12.874777      -17.558811     -127.887978
     -12.722803      -17.575138     -127.800972
     -12.581556      -17.590481     -127.636971
     -12.467409      -17.602406     -127.529976
     -12.412252      -17.608944     -127.370979
     -12.295902      -17.621265     -127.181969
     -12.190277      -17.632603     -127.065971
     -12.162222      -17.635723     -126.784981
     -12.069525      -17.645695     -126.662971
     -11.941492      -17.658703     -126.468971
     -11.859520      -17.667698     -126.335976
     -11.686769      -17.687229     -126.185966
     -11.607000      -17.695827     -126.050972
     -11.533838      -17.703266     -125.805977
     -11.442389      -17.712559     -125.677971
     -11.298939      -17.728291     -125.506981
     -11.227694      -17.736294     -125.356972
     -11.160852      -17.743526     -125.197975
     -11.021809      -17.758480     -125.036980
     -10.870794      -17.775089     -124.937981
     -10.889368      -17.772274     -124.705971
     -10.884964      -17.773052     -124.490974
     -10.773979      -17.784878     -124.362968
     -10.724468      -17.789967     -124.133980
     -10.630816      -17.799648     -124.001976
     -10.593948      -17.804325     -123.823967
     -10.478558      -17.816929     -123.625969
     -10.412960      -17.823490     -123.463966
     -10.389307      -17.825840     -123.199974
     -10.362207      -17.829250     -123.009972
     -10.295364      -17.836483     -122.844978
     -10.276117      -17.838055     -122.637978
     -10.258783      -17.840206     -122.429970
     -10.248060      -17.841183     -122.218971
     -10.130466      -17.854176     -122.086967
     -10.025127      -17.864552     -121.947975
      -9.981941      -17.869434     -121.723976
      -9.930229      -17.874912     -121.548973
      -9.928986      -17.875584     -121.331978
      -9.831884      -17.886333     -121.202980
      -9.815796      -17.887798     -120.996971
      -9.761885      -17.893658     -120.762978
      -9.721182      -17.897205     -120.578972
      -9.729708      -17.896603     -120.284981
      -9.724344      -17.897091     -120.074974
      -9.614315      -17.909214     -119.939980
      -9.634808      -17.906963     -119.702980
      -9.646776      -17.905315     -119.470970
      -9.688723      -17.901096     -119.221977
      -9.637011      -17.906574     -119.035973
      -9.562889      -17.913731     -118.870979
      -9.568253      -17.913235     -118.646980
      -9.584341      -17.911762     -118.374977
      -9.520660      -17.918896     -118.201973
      -9.499208      -17.920856     -117.997978
      -9.464830      -17.924191     -117.795967
      -9.560688      -17.914112     -117.518974
      -9.590948      -17.910603     -117.279976
      -9.531672      -17.916958     -117.043968
      -9.529469      -17.917347     -116.822975
      -9.567293      -17.912952     -116.583977
      -9.567293      -17.912952     -116.369972
      -9.640741      -17.904560     -116.112968
      -9.569496      -17.912563     -115.932976
      -9.550247      -17.914135     -115.719978
      -9.669758      -17.901714     -115.418968
      -9.693411      -17.899364     -115.178978
      -9.660276      -17.902020     -114.987968
      -9.786392      -17.888439     -114.681969
      -9.799320      -17.887066     -114.450981
      -9.819813      -17.884823     -114.213974
      -9.811289      -17.885418     -113.963974
      -9.842508      -17.882191     -113.723976
      -9.966421      -17.868992     -113.428970
      -9.968626      -17.868595     -113.212975
     -10.027901      -17.862247     -112.928970
     -10.084017      -17.855999     -112.675972
     -10.168188      -17.846622     -112.410973
     -10.211374      -17.841740     -112.157974
     -10.316999      -17.830402     -111.826973
     -10.352621      -17.826397     -111.579971
     -10.383841      -17.823170     -111.335976
     -10.479698      -17.813099     -111.062973
     -10.586567      -17.801083     -110.728973
     -10.689989      -17.790134     -110.451973
     -10.768797      -17.781254     -110.186974
     -10.824915      -17.774998     -109.933975
     -10.907843      -17.766293     -109.599976
     -10.984449      -17.757801     -109.331970
     -11.310131      -17.722233     -108.664970
     -11.402828      -17.712261     -108.404976
     -11.570217      -17.693218     -108.013977
     -11.681204      -17.681393     -107.752975
     -11.882683      -17.659985     -107.351974
     -11.987349      -17.648365     -107.090973
     -12.629902      -17.578785     -105.994972
     -12.781874      -17.562466     -105.731972
     -12.989962      -17.539890     -105.324974
     -13.133696      -17.523197     -105.066971
     -13.313725      -17.503750     -104.653976
     -32.899536      -13.382011     -130.658966
     -31.978893      -13.481495     -131.049988
     -31.724457      -13.509056     -131.123962
     -31.513208      -13.531731     -131.114960
     -30.869413      -13.601982     -131.382965
     -30.466164      -13.645763     -131.581970
     -30.241987      -13.669811     -131.605988
     -28.551720      -13.852177     -131.897980
     -27.929373      -13.920471     -132.110962
     -27.700792      -13.945290     -132.158966
     -27.432470      -13.973934     -132.089966
     -27.181480      -14.000431     -132.197968
     -26.866524      -14.035015     -132.198975
     -26.726522      -14.049683     -132.198975
     -26.369623      -14.088474     -132.269989
     -26.193712      -14.108109     -132.264984
     -25.888809      -14.140469     -132.258972
     -25.674114      -14.164204     -132.320984
     -25.399185      -14.194012     -132.270966
     -25.125502      -14.223145     -132.211975
     -24.821558      -14.255791     -132.204987
     -24.393414      -14.302589     -132.286987
     -24.063614      -14.337978     -132.325989
     -23.810135      -14.365818     -132.233978
     -23.592567      -14.388699     -132.092987
     -23.464249      -14.402672     -132.035980
     -23.156857      -14.436378     -132.030975
     -22.776304      -14.477524     -132.126984
     -22.521870      -14.505081     -132.045959
     -22.297691      -14.529129     -131.929962
     -21.968851      -14.564796     -131.947968
     -21.664906      -14.597443     -131.930969
     -21.434124      -14.622650     -131.823975
     -21.191658      -14.648556     -131.730988
     -21.051369      -14.664185     -131.691986
     -20.798178      -14.691071     -131.612976
     -20.544701      -14.718910     -131.535980
     -20.275135      -14.748222     -131.475983
     -20.011217      -14.776093     -131.409973
     -19.817303      -14.796623     -131.256989
     -19.542088      -14.827389     -131.204987
     -19.409649      -14.841183     -131.163971
     -19.132521      -14.871368     -131.111969
     -19.024694      -14.883095     -131.060974
     -18.771502      -14.909981     -130.981964
     -18.640980      -14.924343     -130.935974
     -18.436052      -14.946815     -130.796967
     -18.180658      -14.974087     -130.720978
     -17.987701      -14.994904     -130.580963
     -17.860626      -15.008205     -130.508972
     -17.593264      -15.037128     -130.443970
     -17.475668      -15.050125     -130.354980
     -17.332220      -15.065857     -130.168976
     -17.253695      -15.073784     -129.902985
     -17.112448      -15.089123     -129.850983
     -16.795576      -15.123138     -129.848969
     -16.612101      -15.143646     -129.693970
     -16.385723      -15.168079     -129.587982
     -16.267170      -15.180790     -129.512970
     -16.132532      -15.194965     -129.302979
     -15.892265      -15.220482     -129.214966
     -15.821022      -15.228489     -129.079987
     -15.623657      -15.250084     -128.946960
     -15.486818      -15.264645     -128.878967
     -15.240906      -15.291611     -128.794983
     -15.080408      -15.308533     -128.626984
     -15.013567      -15.315765     -128.481964
     -14.893772      -15.329144     -128.272980
     -14.817450      -15.336681     -128.137970
     -14.681566      -15.351532     -127.949974
     -14.620087      -15.358276     -127.796974
     -14.398113      -15.381931     -127.696968
     -14.198549      -15.403915     -127.670967
     -14.069273      -15.417599     -127.480980
     -13.948519      -15.430691     -127.379967
     -13.867790      -15.439014     -127.234978
     -13.755560      -15.451511     -127.040977
     -13.667269      -15.460705     -126.916969
     -13.558199      -15.473103     -126.704979
     -13.533587      -15.475170     -126.519981
     -13.342833      -15.495594     -126.379967
     -13.179848      -15.513863     -126.212975
     -13.141066      -15.517967     -126.041969
     -12.900801      -15.543484     -125.958977
     -12.780046      -15.556576     -125.861977
     -12.744425      -15.560581     -125.589973
     -12.616104      -15.574558     -125.490974
     -12.508278      -15.586285     -125.374977
     -12.457811      -15.591084     -125.119972
     -12.341463      -15.603401     -125.007973
     -12.259491      -15.612392     -124.787971
     -12.226070      -15.616009     -124.602974
     -12.098711      -15.630264     -124.496971
     -12.030912      -15.637211     -124.339973
     -11.932852      -15.647675     -124.134972
     -11.881142      -15.653145     -123.961967
     -11.789404      -15.663403     -123.749977
     -11.696709      -15.673367     -123.614967
     -11.642794      -15.679234     -123.444969
     -11.531807      -15.691063     -123.313972
     -11.407890      -15.704262     -123.142967
     -11.337893      -15.711590     -122.981972
     -11.292501      -15.716866     -122.799980
     -11.275455      -15.718048     -122.591972
     -11.166386      -15.730446     -122.407967
     -11.141773      -15.732513     -122.207970
     -11.107109      -15.736805     -122.016975
     -11.064207      -15.740726     -121.830971
     -10.931482      -15.755478     -121.719978
     -10.924877      -15.756638     -121.454979
     -10.854876      -15.763973     -121.301979
     -10.866844      -15.762321     -121.075981
     -10.835625      -15.765553     -120.799980
     -10.750494      -15.774639     -120.660973
     -10.653393      -15.785385     -120.459969
     -10.591917      -15.792122     -120.297981
     -10.575827      -15.793598     -120.097969
     -10.578030      -15.793209     -119.877968
     -10.526320      -15.798683     -119.690971
     -10.410929      -15.811287     -119.538979
     -10.409969      -15.811001     -119.315971
     -10.402403      -15.811886     -119.097969
     -10.318232      -15.821259     -118.925972
     -10.381912      -15.814125     -118.673973
     -10.349735      -15.817070     -118.482979
     -10.368025      -15.815216     -118.253975
     -10.339010      -15.818050     -118.071968
     -10.359501      -15.815807     -117.779976
     -10.288256      -15.823814     -117.620979
     -10.264605      -15.826160     -117.418968
     -10.228024      -15.829876     -117.168968
     -10.247271      -15.828308     -116.938972
     -10.275614      -15.824223     -116.697975
     -10.252918      -15.826859     -116.494972
     -10.288542      -15.822857     -116.252968
     -10.210976      -15.831066     -116.077980
     -10.260483      -15.825981     -115.825981
     -10.281935      -15.824017     -115.589973
     -10.293903      -15.822365     -115.357979
     -10.320719      -15.819912     -115.078972
     -10.283178      -15.823345     -114.872978
     -10.386600      -15.812393     -114.596977
     -10.382483      -15.812210     -114.377968
     -10.368311      -15.814251     -114.169975
     -10.427872      -15.806942     -113.905975
     -10.378078      -15.812984     -113.722977
     -10.396368      -15.811131     -113.491974
     -10.479584      -15.801464     -113.209976
     -10.495670      -15.799995     -112.973976
     -10.600336      -15.788372     -112.641975
     -10.603497      -15.788269     -112.425972
     -10.599379      -15.788086     -112.212975
     -10.633757      -15.784756     -111.989975
     -10.655495      -15.781834     -111.704971
     -10.815031      -15.764633     -111.410973
     -10.869904      -15.759052     -111.155975
     -10.910889      -15.754562     -110.845970
     -10.945553      -15.750271     -110.600975
     -11.046772      -15.739708     -110.322975
     -11.177292      -15.725353     -110.031975
     -11.236568      -15.718994     -109.774971
     -11.345638      -15.706596     -109.437973
     -11.410278      -15.699753     -109.180977
     -11.506134      -15.689686     -108.916977
     -11.641060      -15.674545     -108.546974
     -11.739119      -15.664085     -108.280975
     -11.949409      -15.641121     -107.885971
     -12.009644      -15.635052     -107.632973
     -12.104826      -15.623741     -107.364975
     -12.329004      -15.599689     -106.966972
     -12.357059      -15.596573     -106.722977
     -12.402451      -15.591297     -106.476974
     -12.675175      -15.561882     -106.055977
     -12.801292      -15.548294     -105.653976
     -13.108683      -15.514591     -105.219971
     -13.242365      -15.500126     -104.967972
     -13.454857      -15.476776     -104.556976
     -13.605869      -15.460171     -104.290977
     -13.864426      -15.432789     -103.868973
     -13.994946      -15.418434     -103.605972
     -32.382023      -11.426086     -129.960968
     -32.137356      -11.452381     -129.989960
     -31.854862      -11.483067     -130.119965
     -31.499207      -11.521183     -130.243988
     -31.283554      -11.544636     -130.224976
     -31.027876      -11.572868     -130.307983
     -30.663696      -11.611580     -130.426971
     -30.413380      -11.639320     -130.507965
     -30.078217      -11.675198     -130.567963
     -29.524914      -11.735867     -130.647980
     -29.256592      -11.764511     -130.757965
     -28.988270      -11.793152     -130.874969
     -28.664791      -11.828331     -130.896973
     -28.498646      -11.846695     -130.854980
     -28.062265      -11.893131     -131.046967
     -27.814150      -11.920486     -130.946960
     -27.490673      -11.955662     -130.977966
     -26.952785      -12.013618     -131.053986
     -26.768349      -12.033844     -131.023987
     -26.592724      -12.052517     -130.973969
     -25.859678      -12.131676     -131.189972
     -25.589153      -12.160706     -131.119965
     -25.392750      -12.182587     -131.152985
     -25.135155      -12.210247     -131.071960
     -24.777296      -12.248756     -131.129974
     -24.517498      -12.276806     -131.052979
     -24.266222      -12.304260     -130.964966
     -23.963236      -12.337193     -130.945984
     -23.661495      -12.369450     -130.928986
     -23.384363      -12.399643     -130.877960
     -23.127726      -12.427589     -130.798981
     -22.995287      -12.441380     -130.744965
     -22.696419      -12.474495     -130.728973
     -22.393721      -12.506466     -130.714966
     -22.125113      -12.536068     -130.651978
     -21.877285      -12.562458     -130.565979
     -21.714300      -12.580723     -130.567963
     -21.383541      -12.615822     -130.589966
     -21.304731      -12.624710     -130.483978
     -21.101048      -12.646507     -130.339966
     -20.862701      -12.672592     -130.239960
     -20.589016      -12.701725     -130.189972
     -20.393856      -12.722927     -130.220978
     -20.169682      -12.746975     -130.103973
     -19.950867      -12.770527     -129.986969
     -19.760113      -12.790958     -129.837982
     -19.535936      -12.815002     -129.727966
     -19.410778      -12.828873     -129.658966
     -19.160461      -12.856617     -129.577972
     -19.036547      -12.869816     -129.506989
     -18.733847      -12.901783     -129.485962
     -18.522312      -12.925419     -129.365967
     -18.347645      -12.944378     -129.197968
     -18.196917      -12.960026     -129.000977
     -18.094454      -12.971264     -128.908966
     -17.868074      -12.995697     -128.802979
     -17.638536      -13.020233     -128.701965
     -17.450941      -13.040558     -128.693970
     -17.289202      -13.058147     -128.519989
     -17.098446      -13.078575     -128.374969
     -16.991579      -13.090588     -128.279968
     -16.821318      -13.108768     -128.113983
     -16.667143      -13.125481     -127.936974
     -16.591776      -13.133308     -127.803978
     -16.412706      -13.153042     -127.653969
     -16.218790      -13.173569     -127.635979
     -16.047283      -13.192425     -127.482979
     -15.961195      -13.201229     -127.357979
     -15.836035      -13.215103     -127.152977
     -15.677742      -13.231628     -127.105980
     -15.490149      -13.251953     -126.962975
     -15.265970      -13.276005     -126.856972
     -15.143974      -13.289768     -126.778969
     -14.982233      -13.307362     -126.602974
     -14.904667      -13.315571     -126.342979
     -14.815418      -13.324478     -126.226967
     -14.625620      -13.345196     -126.092979
     -14.484373      -13.360538     -126.014977
     -14.475565      -13.362087     -125.729973
     -14.318230      -13.378899     -125.651970
     -14.245068      -13.386337     -125.498970
     -14.081125      -13.404316     -125.425972
     -14.019648      -13.411060     -125.187981
     -13.934517      -13.420147     -125.051979
     -13.749125      -13.440086     -124.916969
     -13.657385      -13.450344     -124.789970
     -13.651064      -13.450546     -124.486977
     -13.540079      -13.462376     -124.371971
     -13.421528      -13.475079     -124.265968
     -13.216600      -13.497551     -124.150978
     -13.182220      -13.500885     -123.966972
     -13.077555      -13.512508     -123.755974
     -13.034653      -13.516430     -123.579979
     -12.933147      -13.527950     -123.374977
     -12.795345      -13.542233     -123.278969
     -12.724102      -13.550240     -123.123970
     -12.679956      -13.554836     -122.946968
     -12.534306      -13.570953     -122.779976
     -12.466505      -13.577900     -122.620979
     -12.402824      -13.585030     -122.389977
     -12.339144      -13.592163     -122.224968
     -12.239170      -13.602047     -122.081978
     -12.211111      -13.605171     -121.882973
     -12.151834      -13.611530     -121.702980
     -12.064503      -13.621006     -121.566978
     -11.998619      -13.628521     -121.351967
     -11.926416      -13.636246     -121.204979
     -11.859859      -13.642521     -121.053978
     -11.763718      -13.653553     -120.834969
     -11.761515      -13.653938     -120.612968
     -11.757397      -13.653755     -120.330971
     -11.736904      -13.655998     -120.133980
     -11.674467      -13.662457     -119.963966
     -11.576408      -13.672920     -119.816978
     -11.547106      -13.676720     -119.614967
     -11.552469      -13.676228     -119.391975
     -11.530060      -13.677902     -119.149971
     -11.489075      -13.682392     -118.955971
     -11.418789      -13.690685     -118.790977
     -11.318527      -13.701534     -118.648979
     -11.302437      -13.703011     -118.432976
     -11.158030      -13.718456     -118.281975
     -11.122692      -13.721500     -118.084969
     -11.137539      -13.720699     -117.854973
     -11.158030      -13.718456     -117.615974
     -11.131218      -13.720901     -117.410973
     -11.106606      -13.722969     -117.216972
     -11.027796      -13.731853     -117.004967
     -10.999737      -13.734982     -116.807976
     -10.930695      -13.742599     -116.638969
     -10.939503      -13.741051     -116.373970
     -10.958752      -13.739475     -116.143974
     -11.077589      -13.725811     -115.838966
     -11.065620      -13.727463     -115.635979
     -10.921213      -13.742908     -115.485970
     -10.878027      -13.747787     -115.305977
     -10.929735      -13.742317     -115.049980
     -10.901962      -13.744484     -114.825981
     -10.931938      -13.741928     -114.574974
     -11.001266      -13.733349     -114.304977
     -11.031240      -13.730793     -114.066971
     -11.053938      -13.728157     -113.833977
     -10.991499      -13.734615     -113.645973
     -11.048573      -13.728653     -113.383972
     -11.046370      -13.729042     -113.157974
     -11.104689      -13.722401     -112.900970
     -11.111294      -13.721237     -112.675972
     -11.108133      -13.721340     -112.455971
     -11.148834      -13.717804     -112.200974
     -11.250340      -13.706284     -111.871971
     -11.234251      -13.707752     -111.666977
     -11.285961      -13.702278     -111.417976
     -11.292282      -13.702076     -111.211975
     -11.314020      -13.699150     -110.926971
     -11.404512      -13.689575     -110.658974
     -11.492132      -13.679134     -110.390976
     -11.631178      -13.664177     -110.037971
     -11.620165      -13.666122     -109.811974
     -11.641903      -13.663200     -109.569977
     -11.790714      -13.646980     -109.273972
     -11.861959      -13.638973     -109.011971
     -11.995642      -13.624508     -108.655975
     -12.049555      -13.618641     -108.401978
     -12.077612      -13.615520     -108.089973
     -12.135929      -13.608879     -107.844971
     -12.288860      -13.592846     -107.542976
     -12.388163      -13.581711     -107.261971
     -12.618946      -13.556496     -106.907974
     -12.652365      -13.552887     -106.674973
     -12.768715      -13.540562     -106.336975
     -12.884108      -13.527962     -106.068977
     -12.976805      -13.517990     -105.820976
     -13.114887      -13.502754     -105.431976
     -13.300283      -13.482811     -105.028976
     -13.421320      -13.468761     -104.765976
     -13.601351      -13.449314     -104.358971
     -13.735991      -13.435131     -104.095970
     -13.917265      -13.415012     -103.683975
     -14.066076      -13.398792     -103.423973
     -14.420773      -13.360386     -102.985977
     -14.606165      -13.340450     -102.569977
     -33.759037       -9.264080     -128.503967
     -33.500198       -9.292419     -128.580963
     -32.950340       -9.352024     -128.811981
     -32.602249       -9.389271     -128.912964
     -32.398567       -9.411068     -128.886963
     -31.710625       -9.485920     -129.225983
     -30.725344       -9.592251     -129.491974
     -30.571171       -9.608963     -129.427979
     -30.252094       -9.643360     -129.441986
     -29.911283       -9.680687     -129.501984
     -29.349459       -9.741951     -129.628967
     -29.123081       -9.766384     -129.657959
     -28.873049       -9.793167     -129.731964
     -28.635946       -9.818581     -129.794983
     -28.349049       -9.850040     -129.759979
     -28.050467       -9.882198     -129.744965
     -27.641855       -9.926464     -129.882965
     -27.444492       -9.948059     -129.910980
     -27.111534       -9.983543     -129.939972
     -26.860258      -10.011002     -129.845978
     -26.539940      -10.046078     -129.850983
     -26.327734      -10.068466     -129.900970
     -26.029152      -10.100620     -129.878967
     -25.711037      -10.135311     -129.885986
     -25.437065      -10.165398     -129.824982
     -25.109467      -10.200397     -129.845978
     -24.940163      -10.218861     -129.838959
     -24.675003      -10.247402     -129.766968
     -24.373260      -10.279659     -129.748962
     -24.269836      -10.290611     -129.650970
     -23.959286      -10.324421     -129.648987
     -23.667027      -10.356369     -129.614960
     -23.545315      -10.369179     -129.572968
     -23.249893      -10.401234     -129.541962
     -23.102039      -10.417736     -129.527985
     -22.816387      -10.448524     -129.485962
     -22.564152      -10.475693     -129.400970
     -22.317282      -10.502373     -129.312988
     -22.182642      -10.516552     -129.268982
     -21.860121      -10.552017     -129.264984
     -21.640350      -10.575287     -129.144989
     -21.406406      -10.600597     -129.042969
     -21.200521      -10.622780     -128.906982
     -21.075363      -10.636654     -128.848969
     -20.819969      -10.663925     -128.771973
     -20.579704      -10.689442     -128.676971
     -20.221561      -10.728909     -128.723969
     -20.106171      -10.741516     -128.475983
     -19.921062      -10.760494     -128.314972
     -19.635124      -10.792240     -128.277985
     -19.470224      -10.809929     -128.248962
     -19.287033      -10.829483     -128.093964
     -19.137262      -10.845417     -128.052979
     -18.909641      -10.870525     -127.945976
     -18.754509      -10.886948     -127.760979
     -18.503233      -10.914406     -127.679970
     -18.288824      -10.937180     -127.555977
     -18.169029      -10.950562     -127.490974
     -18.021461      -10.966110     -127.283974
     -17.825056      -10.987991     -127.140968
     -17.684097      -11.002369     -126.937981
     -17.516994      -11.020454     -126.763969
     -17.406008      -11.032280     -126.690971
     -17.147167      -11.060612     -126.627968
     -16.960531      -11.081226     -126.604973
     -16.844181      -11.093544     -126.396980
     -16.686846      -11.110359     -126.336967
     -16.541195      -11.126476     -126.157967
     -16.472437      -11.133137     -126.010979
     -16.372175      -11.143986     -125.786980
     -16.225567      -11.159817     -125.716972
     -16.000147      -11.184536     -125.614967
     -15.874029      -11.198124     -125.524971
     -15.745710      -11.212093     -125.327980
     -15.646694      -11.222267     -125.210976
     -15.463217      -11.242779     -125.068977
     -15.354433      -11.254219     -124.956978
     -15.219793      -11.268394     -124.772972
     -15.106604      -11.280617     -124.661980
     -15.037560      -11.288235     -124.506981
     -14.880226      -11.305046     -124.348976
     -14.857531      -11.307682     -124.152977
     -14.759472      -11.318142     -123.934975
     -14.663614      -11.328213     -123.806969
     -14.508482      -11.344639     -123.649971
     -14.374800      -11.359104     -123.542976
     -14.321846      -11.365253     -123.370979
     -14.151583      -11.383434     -123.305977
     -14.096712      -11.389011     -123.130974
     -13.932770      -11.406986     -123.002968
     -13.875696      -11.412952     -122.751976
     -13.835669      -11.417732     -122.578972
     -13.818623      -11.418919     -122.376976
     -13.662247      -11.436016     -122.208977
     -13.621260      -11.440514     -122.029976
     -13.450998      -11.458694     -121.879967
     -13.469288      -11.456833     -121.644981
     -13.338766      -11.471195     -121.458977
     -13.169462      -11.489662     -121.394981
     -13.137285      -11.492607     -121.203972
     -12.943369      -11.513138     -121.079979
     -12.877487      -11.520653     -120.914970
     -12.817253      -11.526722     -120.754967
     -12.886011      -11.520061     -120.396980
     -12.763340      -11.532585     -120.286980
     -12.689892      -11.540981     -120.136971
     -12.682327      -11.541859     -119.838966
     -12.611368      -11.548908     -119.689980
     -12.458151      -11.565907     -119.525978
     -12.429136      -11.568745     -119.333977
     -12.416208      -11.570114     -119.132973
     -12.314987      -11.580677     -118.996971
     -12.220089      -11.591034     -118.808968
     -12.213484      -11.592194     -118.593971
     -12.187628      -11.594933     -118.393974
     -12.216928      -11.591133     -118.156975
     -12.221333      -11.590359     -117.936974
     -12.035940      -11.610298     -117.830971
     -12.011044      -11.613323     -117.627968
     -12.014204      -11.613220     -117.411980
     -11.974463      -11.617043     -117.230980
     -11.888086      -11.626804     -117.017967
     -11.868837      -11.628380     -116.813972
     -11.823448      -11.633648     -116.565971
     -11.821247      -11.634033     -116.354973
     -11.811764      -11.634346     -116.152977
     -11.808603      -11.634445     -115.935966
     -11.743965      -11.641293     -115.758980
     -11.760054      -11.639820     -115.522972
     -11.707098      -11.645969     -115.329979
     -11.724430      -11.643826     -115.093971
     -11.792515      -11.635918     -114.820976
     -11.679327      -11.648132     -114.675972
     -11.685648      -11.647930     -114.443977
     -11.764460      -11.639042     -114.162971
     -11.758137      -11.639248     -113.936974
     -11.728836      -11.643047     -113.734978
     -11.766661      -11.638653     -113.478973
     -11.739845      -11.641109     -113.263977
     -11.710545      -11.644905     -113.048973
     -11.732281      -11.641987     -112.813972
     -11.734484      -11.641598     -112.591972
     -11.750572      -11.640125     -112.353973
     -11.669846      -11.648441     -112.176971
     -11.733524      -11.641312     -111.908974
     -11.805729      -11.633591     -111.634972
     -11.902830      -11.622845     -111.344971
     -11.868166      -11.627132     -111.138977
     -11.910395      -11.621967     -110.882973
     -11.985758      -11.614143     -110.605972
     -11.992367      -11.612976     -110.372971
     -12.009697      -11.610832     -110.132973
     -12.081902      -11.603111     -109.857971
     -12.175556      -11.593426     -109.567970
     -12.226309      -11.587666     -109.314972
     -12.271698      -11.582397     -109.066971
     -12.336336      -11.575554     -108.806976
     -12.354628      -11.573692     -108.569977
     -12.477583      -11.560211     -108.235977
     -12.526134      -11.554836     -107.983971
     -12.576885      -11.549080     -107.728973
     -12.693235      -11.536758     -107.454971
     -12.700800      -11.535881     -107.216972
     -12.809872      -11.523479     -106.874977
     -12.992104      -11.503643     -106.589973
     -13.087002      -11.493290     -106.221977
     -13.121380      -11.489956     -105.975975
     -13.289726      -11.471207     -105.588974
     -13.419004      -11.457516     -105.311974
     -13.507582      -11.447365     -105.046974
