       8.205185       -5.661293      -62.808853
       8.249920       -5.581993      -63.805367
       8.159096       -5.635895      -64.732880
       8.232304       -5.533096      -65.833282
       8.202194       -5.615494      -66.887054
       8.343277       -5.633392      -67.816124
       8.370579       -5.727295      -68.765457
       8.384922       -5.770996      -69.786140
       8.661232       -5.810295      -70.823708
       8.870087       -6.017899      -71.678268
       8.595348       -5.071991      -63.066391
       8.509518       -4.961098      -63.885063
       8.500065       -4.871094      -64.995155
       8.462246       -4.922195      -65.749954
       8.589752       -5.003494      -66.940186
       8.757984       -5.089798      -67.675735
       7.573631      -37.332802      -60.118057
       7.354523      -37.493111      -60.955902
       7.110100      -37.492409      -61.522827
       6.891037      -37.674294      -62.957794
       6.852776      -37.715797      -63.778297
       6.760094      -37.679604      -64.352310
       7.426838      -36.193001      -57.284302
       7.198364      -36.273506      -57.851898
       7.210007      -36.421303      -58.702621
       7.134220      -36.754494      -59.844696
       6.819263      -36.824501      -60.791916
       7.334549      -35.354103      -56.049271
       7.079018      -35.590584      -56.800629
       6.881863      -35.810982      -57.759537
       7.230965      -34.410896      -55.019379
       7.023056      -34.614601      -55.784760
       6.807568      -34.804909      -56.633148
       7.210815      -33.247810      -54.131485
       6.959808      -33.648506      -54.779190
       6.724136      -33.909981      -55.541336
       7.339237      -32.257484      -52.994110
       7.024235      -32.640297      -53.838226
       6.715652      -32.908882      -54.401184
       7.278023      -31.332008      -52.161453
       6.972919      -31.594795      -52.769943
       6.521507      -31.786293      -53.502029
       7.085190      -30.535591      -51.994644
       6.678406      -30.711891      -52.564331
       7.350594      -29.309700      -51.246429
       6.962822      -29.594002      -51.806183
       6.545288      -30.068398      -52.332825
       8.080330      -29.511696      -80.202896
       8.010193      -29.258003      -80.347664
       7.195366      -28.552803      -51.079575
       6.823017      -28.629585      -51.584229
       7.775578      -28.612495      -80.721992
       7.288937      -27.466988      -50.113297
       6.917206      -27.613289      -50.797363
       6.526035      -27.746803      -51.371902
       7.086708      -27.319191      -80.231720
       7.676167      -27.620186      -80.809891
       7.267536      -26.632790      -50.075790
       6.785110      -26.657204      -50.603806
       7.183704      -26.897285      -80.261696
       7.589211      -26.631081      -80.807533
       7.948631      -26.635384      -81.345169
       7.236698      -25.620308      -50.043442
       6.812813      -25.591896      -50.549103
       7.563847      -25.656898      -81.036415
       7.715832      -25.450905      -81.594124
       7.122543      -24.686195      -49.970444
       6.692196      -24.590309      -50.480515
       7.353268      -24.680611      -81.199417
       7.654938      -24.523598      -81.784355
       7.265476      -23.162483      -49.215103
       6.900074      -23.590981      -49.787109
       6.559654      -23.750099      -50.376297
       7.178307      -23.620094      -81.034645
       7.723347      -23.709785      -81.802505
       7.245663      -23.022804      -49.201126
       6.916996      -22.585091      -49.801514
       7.315556      -22.574806      -81.144630
       7.594208      -22.670387      -81.815483
       6.950703      -21.621590      -49.832275
       7.217354      -21.618599      -81.081955
       7.657631      -21.625496      -81.780388
       8.101315      -21.391396      -82.370255
       6.890823      -20.577797      -49.849411
       6.558895      -20.783592      -50.332047
       7.223038      -20.768196      -81.099045
       7.652790      -20.521698      -81.710342
       6.852798      -19.634895      -49.838821
       6.567993      -19.364792      -50.617981
       7.323402      -19.649498      -81.096230
       7.659813      -19.512596      -81.552437
       6.961010      -18.646698      -49.929062
       6.720242      -18.578491      -50.736801
       7.388802      -18.674294      -81.037216
       7.654251      -18.767693      -81.499260
       7.074936      -17.721298      -50.020813
       6.908657      -17.567398      -50.773560
       6.449566      -17.143593      -51.392502
       7.095375      -17.155693      -80.302589
       7.555042      -17.638992      -80.881973
       7.643112      -17.878899      -81.402313
       7.198006      -16.756096      -50.145340
       6.916241      -16.631195      -50.790970
       6.472355      -16.580193      -51.431992
       7.384430      -16.589394      -80.060272
       7.748932      -16.636696      -80.748589
       7.044746      -15.659294      -50.835083
       6.781349      -15.477997      -51.664627
       7.073757      -15.119492      -79.296600
       7.504025      -15.563599      -79.891098
       7.908306      -15.704193      -80.576767
       7.199497      -14.813194      -51.247986
       6.977795      -14.606094      -51.865189
       6.778088      -14.280495      -52.510925
       7.243721      -14.742393      -79.307571
       7.630730      -14.636597      -79.807602
       7.958313      -14.994392      -80.345322
       7.193642      -13.775795      -51.946030
       6.990368      -13.579796      -52.703018
       7.140144      -13.310394      -78.274017
       7.532566      -13.522896      -78.784302
       7.661942      -13.794197      -79.653069
       7.311165      -12.992195      -52.119339
       6.957920      -12.602592      -52.865082
       6.667587      -12.422394      -53.658157
       7.365002      -12.574593      -77.877678
       7.724297      -12.669594      -78.760796
       8.056988      -13.097298      -79.465439
       7.069160      -11.904495      -53.026428
       6.981133      -11.575493      -53.797897
       6.742458      -11.360497      -54.650955
       7.310051      -11.464691      -77.107765
       7.662312      -11.646591      -77.747200
       7.777916      -12.054695      -78.314987
       7.040424      -10.823196      -54.114731
       6.997776      -10.591492      -54.709564
       6.694817      -10.386093      -55.546204
       7.059330      -10.138794      -75.236847
       7.378502      -10.409897      -76.000031
       7.552483      -10.635696      -76.820808
       7.794640      -10.725792      -77.460289
       7.192188       -9.787895      -54.960587
       6.988186       -9.593697      -55.785782
       6.966576       -9.281494      -56.709625
       7.029022       -9.199997      -74.109314
       7.372005       -9.630898      -74.883698
       7.566864       -9.701996      -75.793022
       7.781021      -10.050095      -76.665230
       7.406189       -8.819992      -56.210037
       7.147915       -8.603195      -56.877075
       7.018879       -8.440796      -57.781189
       6.904877       -8.198792      -58.719223
       6.631462       -8.178398      -59.430618
       6.952229       -8.143692      -72.034515
       7.176510       -8.410194      -72.935440
       7.383057       -8.572594      -73.879364
       7.577877       -8.821892      -74.724525
       7.538532       -7.991898      -57.191544
       7.253990       -7.873192      -57.866180
       7.111740       -7.662292      -58.823227
       7.063663       -7.604195      -59.770432
       6.877987       -7.359795      -60.682022
       6.861832       -7.163292      -61.668091
       6.698830       -7.174194      -62.364471
       6.864738       -7.220993      -69.007629
       6.932877       -7.316498      -69.945564
       7.179134       -7.458199      -70.844971
       7.445686       -7.604897      -71.790016
       7.491158       -7.709991      -72.716118
       7.745750       -7.830399      -73.753006
       7.946888       -8.050995      -74.416344
       7.588737       -7.048592      -59.173218
       7.458351       -6.868492      -59.856369
       7.198189       -6.701195      -60.865021
       7.155281       -6.618996      -61.825302
       7.259121       -6.578995      -62.843231
       7.120914       -6.615196      -63.749382
       7.275471       -6.522896      -64.781876
       7.291454       -6.615097      -65.841042
       7.251087       -6.493591      -66.814278
       7.206764       -6.560097      -67.760300
       7.270363       -6.668297      -68.845772
       7.393185       -6.651291      -69.823166
       7.623749       -6.842392      -70.610092
       7.862324       -7.010498      -71.777611
       7.497387       -6.019295      -62.967407
       7.455326       -5.937996      -63.805634
       7.610058       -5.768097      -64.769569
       7.415565       -5.964592      -65.857666
       7.538731       -5.813293      -66.759224
       7.395527       -5.854897      -67.606026
       7.657848       -6.116699      -68.672470
       7.839111       -5.992195      -69.782463
       6.620281      -37.233192      -61.917358
       6.585728      -37.228493      -62.770569
       6.569107      -37.394081      -63.854500
       6.440697      -37.477303      -64.916237
       6.106457      -37.149391      -65.385437
       6.430622      -36.287209      -60.212448
       6.024136      -36.345497      -61.172729
       6.061954      -36.593697      -61.817749
       6.268883      -36.768684      -63.043961
       6.067577      -36.668587      -63.809982
       6.032043      -36.888496      -64.794708
       5.954380      -36.934486      -65.351967
       6.308949      -35.423500      -58.001205
       6.060875      -35.484596      -58.736511
       6.302540      -35.916786      -59.572830
       5.737885      -35.872902      -60.558884
       6.301353      -35.714882      -72.491264
       6.458591      -34.153999      -56.202560
       6.359173      -34.479286      -56.965607
       6.064434      -34.667305      -57.794128
       5.661850      -34.956184      -58.617157
       6.363358      -33.479683      -55.092865
       6.115925      -33.477089      -55.865891
       5.958031      -33.680397      -56.759476
       5.627556      -33.967293      -57.727310
       6.315731      -32.431496      -54.127319
       6.040421      -32.616585      -54.821899
       5.791252      -32.903999      -55.643372
       5.587292      -33.090004      -56.438461
       6.417835      -31.495583      -53.212921
       6.138435      -31.656410      -53.838425
       5.749603      -31.683601      -54.719009
       6.192543      -30.578285      -52.875214
       5.904331      -30.682594      -53.772751
       5.566261      -30.799599      -54.432938
       6.313763      -29.455605      -52.260880
       5.917213      -29.670387      -52.849030
       5.575058      -29.798409      -53.640991
       6.067104      -28.500984      -51.906357
       5.657867      -28.681007      -52.550461
       7.064629      -28.727791      -80.009491
       6.271511      -27.265694      -51.027496
       5.924561      -27.686684      -51.801315
       5.474468      -27.738289      -52.529587
       6.590912      -27.612282      -79.867966
       7.080818      -27.421486      -80.422020
       6.036301      -26.665108      -51.061493
       5.802681      -26.577583      -51.744781
       6.502361      -26.757790      -79.940247
       6.900181      -26.468208      -80.408470
       6.042007      -25.575203      -51.015762
       5.619946      -25.652809      -51.658203
       6.204716      -25.737190      -79.982079
       6.773792      -25.643501      -80.534027
       6.005314      -24.613503      -50.885132
       5.452610      -24.621681      -51.514084
       6.084850      -24.574989      -80.152847
       6.690254      -24.294106      -80.760529
       6.264854      -23.325996      -50.197983
       5.922878      -23.600990      -50.812164
       5.544521      -23.530281      -51.490326
       6.294426      -23.538795      -80.155258
       6.601669      -23.672798      -80.734207
       6.260231      -22.537605      -50.219452
       5.937447      -22.613686      -50.855423
       5.616821      -22.601997      -51.475906
       6.371887      -22.726601      -80.096413
       6.604557      -22.587685      -80.737686
       6.342556      -21.698006      -50.155670
       5.924957      -21.614601      -50.856674
       5.588398      -21.578285      -51.489548
       6.421398      -21.565498      -80.165771
       6.657448      -21.609108      -80.788536
       6.376469      -20.545395      -50.107010
       5.894855      -20.618492      -50.828766
       5.500168      -20.702492      -51.415665
       6.327824      -20.384697      -80.258064
       6.567043      -20.636093      -80.805611
       7.073772      -21.102692      -81.339020
       6.332069      -19.798096      -50.315796
       6.013256      -19.647797      -50.896500
       5.763752      -19.367798      -51.593124
       6.325256      -19.564194      -79.997131
       6.709953      -19.561493      -80.787384
       6.166763      -18.771294      -51.030914
       5.898937      -18.594597      -51.696869
       6.539261      -18.642998      -79.953903
       6.870495      -18.554192      -80.746246
       6.251415      -17.877998      -51.086670
       5.939621      -17.603897      -51.831024
       5.470131      -17.218193      -52.368393
       6.067604      -17.455597      -79.201401
       6.524612      -17.683395      -79.842987
       6.943275      -17.616592      -80.743851
       6.394238      -16.411095      -51.122543
       5.957363      -16.628998      -51.838318
       5.518063      -16.466599      -52.474243
       6.239315      -16.460197      -79.108734
       6.675686      -16.619598      -79.844673
       6.950367      -17.071098      -80.498703
       6.435631      -15.839592      -51.200272
       6.039112      -15.734993      -51.774490
       5.746136      -15.544197      -52.615372
       6.039597      -15.480995      -78.246094
       6.396713      -15.631592      -78.888725
       6.633747      -15.452995      -79.547852
       6.402489      -14.829292      -52.130112
       5.970821      -14.604195      -52.863358
       5.528328      -14.370598      -53.540070
       6.227867      -14.523499      -77.921257
       6.587288      -14.582298      -78.848694
       6.946484      -14.787697      -79.467834
       6.153812      -13.748497      -53.075211
       5.923569      -13.373299      -53.748154
       5.513134      -13.310196      -54.418304
       6.030842      -13.272194      -77.077187
       6.465275      -13.557594      -77.881721
       6.801964      -13.806793      -78.591896
       6.375462      -12.823097      -53.273987
       6.036949      -12.640594      -53.849869
       5.907452      -12.538597      -54.788559
       5.630749      -12.269592      -55.430908
       6.082699      -12.323494      -76.237640
       6.361156      -12.600098      -77.001114
       6.743843      -12.683296      -77.754105
       6.334190      -11.740997      -54.197601
       6.066002      -11.714294      -54.838730
       5.943027      -11.557098      -55.717194
       5.658741      -11.196198      -56.411728
       6.010250      -11.318497      -75.209389
       6.260498      -11.653793      -75.912788
       6.569374      -11.685997      -76.844635
       6.971981      -12.082092      -77.334801
       6.457310      -10.714592      -55.070541
       6.063133      -10.609795      -55.870605
       5.814697      -10.569695      -56.690659
       5.705757      -10.273994      -57.721497
       5.973083      -10.275398      -73.955811
       6.344746      -10.531693      -74.940308
       6.526371      -10.708992      -75.794975
       6.722260      -11.032295      -76.669174
       6.315292       -9.754791      -56.153275
       6.084049       -9.659698      -56.808655
       6.019360       -9.726898      -57.859833
       5.910278       -9.444199      -58.738541
       5.682873       -9.148598      -59.641785
       5.957073       -9.230293      -71.996582
       6.090832       -9.596497      -72.892479
       6.393303       -9.573494      -73.838631
       6.539936       -9.830795      -74.688454
       6.869629      -10.116196      -75.452377
       6.419853       -9.076698      -57.063782
       6.364162       -8.775993      -57.828934
       6.126694       -8.650299      -58.822800
       5.979649       -8.612694      -59.850266
       5.967758       -8.380493      -60.783188
       5.854900       -8.431793      -61.885605
       5.839100       -8.210297      -62.708542
       5.883549       -8.149895      -67.906456
       6.027653       -8.266495      -68.913414
       6.095154       -8.356796      -69.848679
       6.111187       -8.443794      -70.922684
       6.339169       -8.578697      -71.869492
       6.411587       -8.572998      -72.834381
       6.648937       -8.776398      -73.600952
       6.528622       -8.057999      -59.043625
       6.175068       -7.849892      -60.012634
       6.241085       -7.706696      -60.852875
       6.227940       -7.639297      -61.838028
       6.246384       -7.620895      -62.849640
       6.183479       -7.419693      -63.850166
       6.198536       -7.506897      -64.901909
       6.137012       -7.567596      -65.883301
       6.247459       -7.406693      -66.821342
       6.236950       -7.582993      -67.905640
       6.318645       -7.620499      -68.874413
       6.420071       -7.648598      -69.864304
       6.560101       -7.800491      -70.785942
       6.629208       -8.016495      -71.881790
       6.593670       -7.082397      -61.149261
       6.594788       -6.938293      -62.078049
       6.464413       -6.826294      -62.919937
       6.406239       -6.904793      -63.794167
       6.566692       -6.820999      -64.914200
       6.550343       -6.821297      -65.866264
       6.478336       -6.754791      -66.730545
       6.538883       -6.746292      -67.749481
       6.702236       -6.906197      -68.913895
       6.830616       -6.902992      -69.562775
       5.685169      -36.291908      -64.022552
       5.464176      -36.306099      -64.912209
       5.538559      -36.539894      -65.487556
       5.600716      -35.138008      -59.034805
       5.475536      -35.374611      -59.896469
       5.327457      -35.546883      -60.953262
       5.191814      -35.597908      -61.784698
       5.486301      -35.919594      -62.943588
       5.251602      -35.827797      -63.988380
       5.041363      -35.821602      -64.857414
       5.429325      -34.316200      -58.173859
       5.212048      -34.519508      -58.927048
       5.142643      -34.627907      -59.822098
       4.958298      -34.694588      -60.871887
       4.694431      -34.737495      -61.749603
       5.441956      -33.283607      -56.883469
       5.106529      -33.633583      -57.873093
       4.825283      -33.904305      -58.819748
       4.758766      -33.965706      -59.719681
       5.461647      -32.236702      -55.220535
       5.226608      -32.477882      -55.919724
       4.975418      -32.653908      -56.742401
       4.800369      -32.917885      -57.473846
       5.291424      -31.484993      -55.075378
       4.936398      -31.660805      -55.718109
       4.648338      -31.968391      -56.664307
       5.450459      -30.363808      -54.097641
       5.037949      -30.570992      -54.848358
       4.647022      -30.730385      -55.550476
       5.344585      -29.315987      -53.235565
       5.054676      -29.545296      -53.879974
       4.824768      -29.689186      -54.637543
       5.091915      -28.508400      -53.003342
       4.818428      -28.786385      -53.766861
       4.530785      -29.045082      -54.431122
       5.539162      -28.723000      -77.937820
       5.426098      -27.576485      -52.340118
       5.024010      -27.572792      -52.969116
       4.597752      -27.519691      -53.606766
       5.527344      -27.522194      -78.818420
       5.923210      -27.424294      -79.476738
       5.333485      -26.625191      -52.149918
       5.003025      -26.638008      -52.869949
       4.644882      -26.780006      -53.412811
       5.052971      -27.032600      -78.365608
       5.418133      -26.611092      -79.032478
       5.793659      -26.554085      -79.557243
       5.164330      -25.581093      -52.021652
       4.831364      -25.594307      -52.763702
       5.350571      -25.720589      -78.958511
       5.676029      -25.622505      -79.757454
       5.426231      -24.478889      -51.323761
       4.997677      -24.570290      -51.844666
       4.646042      -24.746498      -52.577682
       5.262356      -24.747383      -78.962646
       5.723034      -24.663490      -79.847443
       5.319584      -23.769691      -51.250702
       4.973854      -23.588387      -51.921875
       4.604595      -23.562782      -52.516739
       5.262146      -23.640511      -79.212654
       5.613380      -23.717293      -79.773666
       4.895592      -22.577980      -51.891418
       4.806297      -22.607094      -52.461090
       5.217514      -22.666084      -79.210953
       5.718204      -22.614693      -79.823677
       4.906757      -21.591805      -51.957596
       4.646782      -21.709602      -52.621063
       5.135708      -21.662392      -79.193031
       5.583729      -21.575294      -79.752281
       5.334435      -20.553596      -51.302521
       4.935612      -20.602997      -51.873444
       4.544918      -20.605095      -52.569458
       5.262051      -20.416992      -79.180542
       5.659405      -20.617996      -79.842674
       6.066086      -20.500694      -80.404358
       5.438446      -20.014297      -51.319885
       5.006470      -19.638092      -51.925247
       4.653450      -19.412498      -52.628433
       5.366978      -19.529999      -78.989655
       5.758091      -19.753395      -79.758148
       5.171436      -18.608498      -52.080948
       4.865120      -18.577393      -52.638672
       5.423252      -18.629395      -78.965462
       5.834030      -18.747597      -79.505257
       5.271267      -17.639694      -52.291153
       4.886150      -17.645393      -52.843948
       4.497818      -17.197891      -53.437836
       5.086575      -17.438698      -78.247597
       5.603733      -17.551094      -78.957947
       6.040676      -17.352798      -79.572807
       5.408051      -16.607895      -52.260727
       4.970509      -16.635498      -52.891907
       4.701767      -16.550491      -53.647812
       5.407375      -16.415298      -77.980461
       5.535713      -16.629692      -78.771713
       5.851006      -16.780495      -79.390236
       5.312492      -16.099197      -52.304398
       5.136391      -15.552597      -52.965790
       4.954430      -15.558594      -53.832794
       4.523746      -15.501793      -54.688171
       5.267300      -15.404495      -77.146858
       5.551228      -15.647095      -77.889687
       5.782646      -15.916199      -78.587952
       5.382172      -14.756493      -52.990479
       5.050335      -14.618797      -53.864441
       4.759560      -14.586494      -54.737198
       5.546616      -14.552597      -77.061584
       5.654404      -14.623497      -77.846886
       5.215130      -13.681091      -53.802948
       5.016033      -13.590294      -54.823257
       4.728405      -13.187592      -55.667068
       4.973186      -13.149696      -75.139595
       5.213039      -13.494698      -75.926804
       5.527981      -13.641998      -76.825005
       5.758831      -14.011795      -77.705330
       5.399685      -12.966194      -54.327332
       5.176395      -12.678299      -55.038956
       5.018967      -12.634895      -55.838760
       4.621540      -12.329292      -56.682602
       4.991993      -12.254791      -74.326790
       5.330593      -12.448395      -75.054504
       5.470364      -12.693794      -75.820045
       5.891380      -12.675697      -76.757118
       5.246803      -11.737495      -56.096802
       4.998665      -11.685394      -56.780411
       4.762730      -11.384796      -57.735962
       5.083187      -11.158493      -73.166603
       5.239079      -11.517693      -74.136009
       5.464779      -11.635094      -74.787994
       5.917797      -11.625496      -75.652077
       5.458134      -10.893997      -56.350830
       5.311546      -10.677292      -57.012161
       5.055721      -10.599594      -57.882141
       5.094791      -10.525894      -58.835129
       4.710331      -10.483994      -59.704758
       4.887184      -10.138596      -70.995590
       5.142834      -10.474998      -72.012428
       5.386948      -10.601997      -72.915848
       5.470608      -10.637497      -73.844772
       5.725613      -10.908394      -74.682564
       5.572693       -9.935493      -58.047195
       5.313103       -9.758293      -59.029037
       5.127724       -9.615799      -59.858521
       5.092800       -9.376495      -60.862762
       4.954758       -9.402596      -61.757065
       4.924713       -9.172798      -62.819077
       4.849766       -9.204094      -67.827675
       5.016193       -9.335999      -69.040192
       5.081814       -9.420792      -69.971954
       5.267284       -9.540894      -70.963966
       5.491863       -9.673592      -71.806213
       5.670273       -9.826492      -72.704605
       5.936859       -9.688293      -73.782860
       5.501301       -8.781998      -59.907623
       5.324631       -8.715096      -60.856796
       5.247963       -8.638298      -61.930893
       5.178268       -8.630096      -62.869720
       5.143658       -8.553795      -63.791000
       5.102818       -8.519493      -64.889755
       5.147507       -8.538597      -65.894020
       5.142525       -8.505798      -66.827095
       5.311401       -8.597694      -67.868187
       5.417416       -8.626495      -68.836487
       5.393459       -8.715996      -69.821510
       5.594681       -8.605392      -70.809326
       5.864578       -8.877693      -71.857719
       5.654022       -7.833794      -63.080200
       5.431923       -7.819595      -63.877876
       5.262554       -7.809998      -64.757919
       5.405403       -7.742294      -65.831268
       5.411865       -7.802994      -66.839241
       5.606205       -7.914192      -67.775009
       4.645668      -35.250008      -63.893471
       4.521984      -35.336800      -64.872871
       4.595524      -34.392494      -61.127853
       4.389137      -34.528694      -61.918350
       4.138077      -34.582802      -62.863129
       4.119427      -34.672310      -63.916161
       4.095463      -34.706093      -64.821754
       4.567348      -33.156105      -58.024872
       4.454609      -33.385292      -58.870575
       4.322891      -33.465492      -59.920425
       4.175865      -33.593086      -60.907242
       4.001270      -33.776894      -61.731522
       3.781796      -33.957191      -62.990997
       3.785408      -33.925789      -63.836395
       3.778679      -33.990608      -64.957909
       4.557358      -32.311592      -57.089508
       4.277699      -32.519905      -57.922333
       4.003036      -32.572182      -58.753174
       3.851357      -32.833809      -59.779587
       3.865952      -33.076393      -60.692566
       4.467289      -31.395790      -56.014938
       4.334064      -31.643288      -56.914566
       4.042500      -31.668495      -57.883133
       3.763546      -31.633095      -58.574493
       4.497765      -30.370308      -55.363602
       4.072357      -30.569496      -55.984497
       4.005058      -30.736885      -56.896225
       3.655445      -30.694405      -57.807098
       4.202305      -29.509010      -55.063507
       3.910946      -29.722389      -55.776627
       3.640953      -29.994789      -56.704483
       4.273582      -28.450203      -54.130127
       4.047806      -28.629585      -54.866043
       3.733257      -28.755196      -55.707214
       4.741249      -28.841286      -77.022903
       4.114113      -27.563484      -53.978516
       3.879719      -27.655708      -54.804245
       3.575726      -27.769295      -55.571548
       4.316116      -27.856789      -77.156982
       4.838917      -27.837898      -77.733879
       4.354507      -26.277107      -53.293732
       4.031204      -26.624794      -53.914703
       3.659321      -26.830910      -54.784363
       4.237869      -26.615486      -77.265785
       4.581272      -26.605293      -77.902428
       5.038166      -26.533485      -78.575035
       4.213772      -25.440498      -53.083771
       3.942650      -25.613197      -53.773193
       3.539745      -26.109993      -54.408066
       4.072308      -25.620705      -77.277367
       4.518734      -25.633492      -77.825294
       4.795143      -25.396584      -78.561882
       4.057499      -24.580299      -52.992828
       3.865288      -24.582100      -53.649063
       4.026665      -24.900002      -77.353157
       4.341206      -24.610603      -77.933472
       4.884571      -24.642494      -78.802834
       3.975788      -23.642006      -52.891754
       3.776546      -23.556496      -53.711273
       4.265221      -23.738991      -78.021957
       4.674728      -23.570686      -78.777229
       4.063652      -22.627296      -52.931152
       3.604740      -22.633583      -53.816162
       4.311539      -22.640205      -78.040474
       4.587440      -22.496803      -78.811203
       4.059402      -21.609200      -52.855911
       3.580395      -21.492683      -53.719803
       4.373760      -21.595894      -77.977264
       4.716415      -21.550606      -78.715813
       4.428486      -20.286797      -52.209885
       3.994976      -20.602493      -52.950790
       3.822037      -20.560593      -53.672729
       4.367073      -20.635696      -77.960556
       4.709045      -20.597092      -78.791313
       4.451099      -19.978195      -52.251266
       4.082424      -19.650597      -52.934036
       3.933853      -19.543198      -53.718811
       3.521233      -19.427795      -54.471344
       4.017300      -19.197792      -77.338158
       4.372192      -19.489395      -77.901901
       4.691147      -19.555595      -78.641090
       4.161770      -18.599594      -52.930267
       3.959038      -18.669693      -53.836746
       3.558411      -18.731293      -54.571075
       4.099194      -18.547195      -77.139656
       4.548611      -18.648392      -77.863586
       4.835743      -18.485199      -78.580101
       4.208538      -17.717697      -53.106537
       4.033863      -17.598694      -53.877228
       3.648201      -17.386795      -54.700851
       4.278347      -17.688599      -77.069046
       4.613708      -17.617897      -77.881081
       4.955288      -17.630096      -78.420815
       4.355732      -16.858192      -53.323013
       4.106419      -16.770294      -53.960556
       3.929722      -16.568192      -54.858398
       3.569298      -16.385391      -55.524933
       3.992764      -16.346596      -76.195419
       4.434029      -16.559395      -76.966537
       4.752094      -16.782494      -77.806908
       4.422920      -15.746994      -54.143021
       4.028431      -15.670494      -54.884430
       3.800312      -15.526894      -55.731812
       4.227776      -15.426392      -75.893181
       4.601593      -15.549095      -76.853386
       4.909565      -16.110092      -77.452896
       4.138523      -14.729897      -55.146042
       4.050076      -14.598198      -55.773819
       3.654739      -14.376991      -56.740082
       4.144772      -14.497192      -75.185356
       4.456051      -14.564095      -75.867088
       4.743568      -14.839798      -76.609604
       4.404251      -13.753494      -55.153381
       4.118900      -13.661491      -55.819061
       4.004623      -13.555595      -56.912537
       3.793106      -13.457695      -57.740265
       4.121655      -13.320992      -74.065605
       4.465073      -13.604095      -74.909508
       4.714798      -13.792992      -75.665550
       4.954159      -14.019196      -76.530365
       4.370602      -12.777794      -56.037949
       4.190632      -12.664398      -56.859238
       4.005722      -12.607597      -57.861298
       3.705734      -12.480598      -58.732910
       3.912495      -12.130798      -72.328880
       4.065308      -12.585098      -73.083511
       4.458076      -12.634193      -73.936829
       4.715748      -12.869896      -74.704300
       4.396244      -11.812096      -57.144882
       4.138985      -11.688393      -57.953720
       4.098862      -11.589691      -58.867233
       3.791798      -11.571693      -59.803116
       3.830872      -11.348595      -60.837967
       3.682354      -11.362297      -61.626526
       3.881374      -11.197495      -69.942207
       3.992649      -11.410294      -71.157700
       4.220951      -11.522797      -71.947365
       4.444065      -11.609192      -72.903503
       4.641697      -11.773094      -73.708557
       4.523018      -11.040894      -58.164505
       4.266830      -10.864998      -59.087479
       4.170120      -10.607597      -59.949738
       4.058430      -10.592796      -60.857071
       4.083248      -10.466293      -61.875259
       3.849346      -10.473297      -62.887009
       3.920601      -10.230194      -63.980553
       3.938122      -10.295593      -64.876503
       3.938671      -10.359695      -65.819710
       3.795738      -10.393394      -66.869186
       3.918331      -10.496094      -67.908249
       4.071079      -10.610992      -69.012390
       4.188335      -10.493591      -69.914635
       4.376911      -10.607796      -70.883804
       4.565620      -10.719193      -71.709381
       4.655769      -10.923698      -72.647316
       4.890247      -11.046295      -73.620483
       4.572155       -9.888092      -60.189545
       4.374481       -9.754791      -61.001160
       4.274921       -9.631493      -61.871353
       4.189869       -9.611198      -62.875305
       4.211224       -9.639397      -63.891373
       4.244186       -9.643394      -64.860794
       4.294460       -9.623596      -65.896980
       4.335484       -9.597198      -66.873428
       4.250881       -9.631897      -67.903130
       4.314369       -9.692192      -68.842201
       4.481087       -9.729095      -69.804222
       4.679588       -9.893295      -70.811455
       4.564919       -9.055595      -63.050995
       4.643356       -8.742691      -63.979790
       4.708988       -8.756294      -64.970345
       4.635208       -8.811691      -66.013351
       4.625919       -8.740997      -66.976868
       4.788177       -9.017998      -67.969566
       3.624432      -33.124489      -61.252701
       3.553467      -33.431801      -61.936676
       3.470623      -33.455086      -62.903641
       3.473381      -33.406990      -63.929283
       3.450733      -33.512703      -64.850349
       3.579494      -32.285683      -59.119080
       3.350475      -32.355202      -59.871307
       3.201900      -32.556007      -60.977753
       3.093182      -32.660408      -61.810425
       3.067253      -32.696785      -63.009827
       3.063549      -32.717690      -63.904114
       3.076595      -32.759682      -64.752113
       3.596870      -31.361610      -58.377243
       3.310280      -31.526802      -59.030930
       3.068871      -31.635109      -59.815292
       2.952583      -31.714790      -60.867310
       2.756580      -31.721901      -61.868744
       2.698265      -32.105904      -62.418808
       3.568932      -30.212410      -57.013336
       3.345734      -30.525002      -57.973251
       3.065289      -30.640297      -58.825760
       2.767391      -30.871284      -59.886642
       2.674229      -30.868507      -60.731430
       3.475964      -29.476601      -56.196884
       3.133350      -29.623787      -57.008392
       2.978157      -29.719002      -57.829208
       2.717949      -29.882484      -58.605316
       3.265419      -28.422585      -56.137970
       3.069923      -28.588509      -56.876694
       2.592014      -28.801796      -57.748566
       3.086956      -29.080208      -74.194962
       3.799347      -28.432899      -75.769211
       3.446907      -27.259010      -55.213455
       3.174915      -27.577400      -55.997955
       2.891518      -27.676796      -56.791245
       3.276413      -27.482582      -75.119362
       3.538651      -27.764687      -75.703339
       3.505848      -26.134193      -54.332550
       3.216606      -26.500404      -55.083603
       3.033653      -26.614906      -55.865112
       2.756184      -26.753304      -56.506073
       3.171078      -27.077187      -75.126869
       3.479225      -26.574501      -76.390358
       3.710480      -26.369606      -76.771774
       3.491432      -25.585304      -54.126831
       3.064896      -25.639687      -54.921204
       2.767162      -25.625099      -55.653809
       3.161400      -25.567207      -76.151810
       3.490433      -25.652199      -76.808060
       3.425373      -24.685005      -54.229385
       3.049408      -24.641701      -54.990036
       2.803329      -24.672890      -55.674576
       3.046692      -24.683693      -76.065994
       3.482685      -24.576302      -76.911034
       3.951897      -24.650093      -77.514938
       3.455418      -23.647408      -53.877380
       3.077995      -23.593697      -54.907593
       2.722237      -23.749092      -55.722137
       3.104233      -23.791908      -76.095192
       3.449833      -23.648994      -76.931480
       3.751415      -23.550392      -77.631676
       3.348980      -22.611794      -53.862320
       2.997677      -22.608894      -54.885010
       2.625816      -22.612495      -55.626770
       3.010796      -22.732796      -76.199142
       3.441959      -22.580605      -76.924507
       3.893143      -22.635689      -77.749619
       3.235600      -21.604195      -53.992233
       2.874184      -21.608681      -54.859100
       2.552994      -21.914680      -55.426178
       3.082245      -21.506081      -76.300011
       3.513813      -21.614204      -76.852417
       3.963341      -21.799202      -77.571823
       3.342144      -20.709595      -53.974808
       2.965115      -20.605392      -54.900620
       2.585434      -20.533798      -55.582535
       3.007633      -20.495499      -75.981934
       3.516266      -20.668396      -76.881973
       4.019001      -20.580193      -77.695755
       3.445847      -19.708992      -53.997498
       3.038990      -19.594193      -54.884338
       2.675732      -19.559593      -55.708939
       3.173874      -19.593193      -75.936272
       3.481205      -19.602592      -76.897881
       3.853382      -19.491692      -77.637978
       3.497131      -18.890495      -54.030853
       3.087082      -18.570992      -54.911240
       2.752048      -18.649597      -55.949265
       2.572956      -18.235596      -56.492889
       3.318291      -18.684792      -76.098785
       3.584373      -18.660194      -76.754646
       3.985382      -18.768295      -77.435806
       3.497547      -17.863892      -54.191284
       3.157715      -17.608398      -54.961090
       2.905334      -17.546196      -55.887772
       2.638931      -17.586594      -56.859436
       3.024418      -17.485092      -75.107880
       3.417923      -17.606194      -75.922417
       3.664871      -17.686798      -76.625832
       3.328178      -16.765198      -55.008804
       3.066032      -16.623192      -55.891190
       2.844322      -16.534798      -56.820313
       2.590698      -16.450897      -57.626312
       2.974743      -16.429497      -74.155861
       3.322834      -16.581894      -74.919441
       3.427818      -16.690598      -75.857483
       3.865345      -16.775093      -76.500420
       3.240494      -15.597198      -56.005493
       3.007446      -15.623192      -56.954758
       2.631580      -15.690598      -57.797516
       2.934441      -15.194992      -73.386971
       3.218380      -15.548294      -74.017838
       3.520996      -15.647896      -74.837303
       3.931679      -15.708298      -75.827774
       3.395844      -14.736595      -56.233261
       3.191532      -14.656593      -56.938919
       3.015694      -14.623398      -57.862015
       2.736401      -14.478798      -58.765656
       2.904449      -14.374191      -72.043556
       3.071690      -14.575294      -72.987854
       3.362411      -14.623093      -73.941040
       3.660431      -14.607895      -74.820503
       3.923431      -15.018799      -75.416847
       3.487392      -14.023392      -56.961594
       3.267456      -13.790596      -57.957520
       3.079647      -13.614594      -58.887466
       2.819050      -13.332893      -59.748520
       3.023464      -13.337593      -71.019691
       3.255077      -13.624092      -71.990234
       3.432251      -13.632797      -72.940605
       3.535805      -13.715492      -73.770927
       3.872044      -13.858597      -74.559006
       3.588787      -12.933098      -58.245804
       3.294910      -12.696693      -59.055313
       3.130817      -12.706497      -59.897568
       3.126743      -12.468391      -60.904007
       2.973000      -12.487297      -61.835297
       2.853149      -12.260292      -62.757339
       2.832523      -12.353394      -67.974693
       2.925426      -12.439796      -68.954697
       3.018574      -12.526695      -69.938789
       3.205280      -12.639793      -70.959221
       3.469864      -12.620499      -71.886726
       3.650066      -12.743095      -72.854187
       3.877663      -12.920593      -73.570061
       3.468479      -11.772095      -59.206696
       3.319942      -11.843994      -59.911118
       3.378471      -11.680092      -60.856476
       3.258980      -11.628593      -61.926559
       3.214615      -11.626297      -62.910919
       2.935879      -11.619492      -63.907410
       3.036240      -11.413094      -64.922539
       2.990883      -11.462593      -65.847954
       3.061623      -11.558098      -67.012390
       3.251472      -11.664192      -67.871826
       3.369545      -11.599792      -68.906586
       3.368210      -11.682098      -69.864120
       3.457508      -11.623596      -70.880043
       3.581215      -11.942291      -71.801918
       3.865379      -11.979492      -72.724785
       3.562119      -10.881592      -62.171906
       3.363453      -10.760094      -62.962112
       3.270287      -10.695297      -63.863480
       3.333992      -10.662292      -64.880089
       3.298180      -10.662498      -65.877213
       3.333229      -10.701996      -66.933029
       3.529053      -10.568192      -67.796242
       3.579609      -10.779594      -68.601105
       3.790485      -10.698196      -69.625221
       3.855251      -11.021896      -70.914818
       3.608704      -10.109596      -63.183136
       3.716377      -10.072792      -63.953545
       3.717079      -10.043495      -64.977272
       3.748249      -10.118294      -66.096855
       3.711605      -10.011894      -67.136543
       2.585049      -32.158211      -62.855911
       2.699318      -32.240700      -63.993874
       2.688774      -32.306587      -64.637024
       2.622314      -31.221504      -61.272858
       2.543850      -31.408699      -62.101639
       2.301189      -31.572609      -63.010757
       2.217377      -31.572609      -63.947517
       2.214493      -31.565193      -64.489159
       2.611652      -30.367195      -59.109970
       2.518093      -30.435310      -59.954590
       2.386112      -30.536507      -61.028732
       2.302559      -30.627785      -61.914703
       2.009178      -30.645607      -62.849350
       1.871155      -30.603889      -63.877846
       1.937698      -30.780006      -64.432487
       2.554649      -29.356087      -58.064713
       2.365433      -29.561806      -58.962585
       2.124912      -29.658089      -59.991196
       2.062958      -29.670692      -60.894699
       1.907261      -29.815285      -61.967468
       1.698933      -29.943703      -62.665466
       1.740730      -30.064186      -64.032059
       2.523003      -28.345100      -57.322922
       2.414955      -28.585091      -57.911804
       2.181011      -28.630684      -58.931305
       1.904514      -28.724098      -59.843918
       1.656044      -28.929909      -60.788635
       2.758327      -28.546486      -73.925827
       2.466942      -27.461189      -57.061462
       2.106514      -27.611702      -57.935928
       1.947777      -27.705208      -58.864944
       1.675045      -27.852303      -59.687851
       2.496078      -27.531685      -73.943619
       2.845623      -27.219002      -74.615112
       2.519375      -26.284096      -56.294067
       2.158348      -26.585182      -57.046875
       2.002354      -26.617989      -57.821808
       1.714794      -26.691811      -58.731064
       1.940235      -26.666695      -73.161774
       2.407505      -26.685188      -74.138245
       2.804779      -26.696297      -74.968697
       2.351639      -25.511086      -56.116318
       2.091206      -25.620186      -56.960205
       1.929901      -25.598488      -57.879196
       1.692432      -25.690804      -58.677521
       2.084000      -25.588509      -74.007698
       2.463337      -25.592903      -74.847084
       2.728233      -25.703285      -75.662743
       2.308571      -24.613380      -56.055603
       2.065136      -24.618996      -56.865662
       1.803204      -24.706795      -57.903290
       1.611492      -24.916786      -58.568497
       2.161930      -24.584694      -74.050728
       2.447147      -24.607491      -74.879799
       2.737167      -24.625587      -75.627632
       2.297016      -23.541695      -56.021545
       1.849754      -23.554298      -56.918503
       1.646492      -23.778389      -57.671875
       2.078220      -23.826302      -74.046165
       2.491920      -23.603004      -74.941879
       2.763180      -23.673103      -75.719360
       2.517693      -22.296181      -55.359055
       2.133831      -22.680000      -56.022934
       1.876373      -22.549904      -56.842224
       1.600842      -22.637886      -57.683502
       2.016640      -22.816292      -74.038605
       2.380852      -22.608192      -74.957695
       2.641636      -22.510506      -75.766846
       2.891224      -22.393105      -76.569290
       2.368355      -21.653481      -55.290497
       2.084175      -21.643990      -55.952728
       1.952251      -21.671791      -56.898849
       1.637772      -21.701210      -57.813828
       1.966347      -21.762306      -74.248444
       2.353794      -21.604195      -75.032097
       2.628700      -21.577583      -75.939110
